# .PCD v0.7 - Point Cloud Data file format
VERSION 0.7
FIELDS x y z normal_x normal_y normal_z curvature
SIZE 4 4 4 4 4 4 4
TYPE F F F F F F F
COUNT 1 1 1 1 1 1 1
WIDTH 857
HEIGHT 1
VIEWPOINT 0 0 0 1 0 0 0
POINTS 857
DATA ascii
-0.086615629 0.55279368 0.027561877 0 0 1 0
-0.13700914 0.55429882 0.027561879 0 0 1 0
0.12584679 0.55487263 0.027561881 0 0 1 0
0.034598242 0.55686772 0.027561879 0 0 1 0
0.037464164 0.55621541 0.027561881 0 0 1 0
0.063454032 0.55915886 0.027561879 0 0 1 0
0.064195618 0.55997813 0.027561879 0 0 1 0
-0.082495727 0.56126362 0.027561877 0 0 1 0
-0.031293336 0.56514639 0.027561879 0 0 1 0
0.089387327 0.56608748 0.027561881 0 0 1 0
0.11594167 0.56617224 0.027561877 0 0 1 0
-0.064225093 0.56701261 0.027561881 0 0 1 0
-0.088501483 0.56924123 0.027561879 0 0 1 0
-0.072414562 0.57044047 0.027561879 0 0 1 0
0.018564899 0.57114553 0.027561879 0 0 1 0
0.081174351 0.57295489 0.027561877 0 0 1 0
-0.12071876 0.57430536 0.027561879 0 0 1 0
-0.073001206 0.57582092 0.027561879 0 0 1 0
0.0083835684 0.57558692 0.027561879 0 0 1 0
0.088308915 0.57527006 0.027561877 0 0 1 0
-0.088792734 0.57642835 0.027561879 0 0 1 0
-0.027021818 0.57665211 0.027561881 0 0 1 0
-0.11865825 0.5771082 0.027561877 0 0 1 0
-0.01524315 0.57706887 0.027561881 0 0 1 0
-0.011310302 0.58007908 0.027561879 0 0 1 0
0.075530082 0.58142054 0.027561881 0 0 1 0
0.11808779 0.5835734 0.027561879 0 0 1 0
0.066971689 0.58511984 0.027561879 0 0 1 0
-0.11521047 0.58815712 0.027561881 0 0 1 0
0.10355922 0.5910995 0.027561879 0 0 1 0
-0.092077225 0.5949102 0.027561879 0 0 1 0
-0.012882311 0.59403378 0.027561879 0 0 1 0
-0.031832468 0.60013717 0.027561877 0 0 1 0
0.055902801 0.60363966 0.027561879 0 0 1 0
0.095402762 0.60415959 0.027561879 0 0 1 0
-0.026031047 0.60524344 0.027561879 0 0 1 0
0.096047759 0.60661948 0.027561879 0 0 1 0
-0.033576857 0.60804707 0.027561881 0 0 1 0
0.0045157783 0.60942656 0.027561881 0 0 1 0
0.087219767 0.61005598 0.027561879 0 0 1 0
0.051357634 0.61441195 0.027561877 0 0 1 0
0.041455563 0.61548984 0.027561877 0 0 1 0
-0.0034146574 0.61701429 0.027561879 0 0 1 0
-0.05185739 0.61876971 0.027561881 0 0 1 0
-0.044999436 0.6188525 0.027561879 0 0 1 0
0.077025712 0.6187188 0.027561877 0 0 1 0
-0.0016956194 0.62440294 0.027561881 0 0 1 0
0.00045005794 0.62849349 0.027561879 0 0 1 0
0.038738564 0.63480198 0.027561877 0 0 1 0
0.0077445568 0.66092128 0.027561879 0 0 1 0
0.002770697 0.66251063 0.027561877 0 0 1 0
-0.032585662 0.64796782 0.028124724 0.50000006 -0.86602539 0 0
0.012708359 0.34055603 0.029914679 -0.49999994 0.86602545 0 0
-0.14443676 0.52152705 0.029070344 1 0 0 0
-0.10234371 0.39230698 0.030023135 0.49999994 0.86602545 0 0
-0.14443676 0.45400962 0.030056145 1 0 0 0
-0.14443676 0.4515073 0.031465136 1 0 0 0
-0.14443676 0.56184238 0.031109149 1 0 0 0
0.14443667 0.58279848 0.031251863 -1 0 0 0
-0.0053784768 0.3363241 0.033909015 0.49999994 0.86602545 0 0
0.1369058 0.41226149 0.033359822 -0.49999994 0.86602545 0 0
-0.099244706 0.60948229 0.033214442 0.50000006 -0.86602539 0 0
0.02142584 0.34558907 0.035563584 -0.49999994 0.86602545 0 0
0.10727843 0.39515612 0.035036001 -0.49999994 0.86602545 0 0
0.14443667 0.57064635 0.035107896 -1 0 0 0
-0.044960961 0.64082295 0.035308972 0.50000006 -0.86602539 0 0
-0.13316165 0.41009971 0.036992572 0.49999994 0.86602545 0 0
-0.14443678 0.52397031 0.036861442 1 0 0 0
0.015214321 0.65799713 0.036310118 -0.50000006 -0.86602539 0 0
-0.03576903 0.35387009 0.037881542 0.49999994 0.86602545 0 0
0.098547935 0.39011553 0.038641296 -0.49999994 0.86602545 0 0
0.14443669 0.52608025 0.038786426 -1 0 0 0
-0.12513946 0.59453189 0.038349766 0.50000006 -0.86602539 0 0
0.0052765012 0.66373479 0.038799029 -0.50000006 -0.86602539 0 0
0.0087383687 0.33826399 0.039478481 -0.49999994 0.86602545 0 0
0.013694202 0.34112522 0.039639477 -0.49999994 0.86602545 0 0
0.14443667 0.47200114 0.039849751 -1 0 0 0
-0.049047291 0.63846374 0.039053768 0.50000006 -0.86602539 0 0
0.076710925 0.37750793 0.040125668 -0.49999994 0.86602545 0 0
0.080471724 0.3796792 0.040958051 -0.49999994 0.86602545 0 0
0.11752933 0.59892559 0.040410493 -0.50000006 -0.86602539 0 0
-0.14443676 0.4959268 0.041163225 1 0 0 0
-0.14443676 0.56174481 0.041124821 1 0 0 0
0.091551162 0.61392409 0.041379176 -0.50000006 -0.86602539 0 0
-0.041810505 0.6426419 0.0426553 0.50000006 -0.86602539 0 0
0.14443666 0.41774115 0.043764744 -1 0 0 0
0.14443667 0.50843287 0.043608703 -1 0 0 0
0.10425952 0.60658687 0.04369488 -0.50000006 -0.86602539 0 0
0.050973121 0.63735175 0.043137651 -0.50000006 -0.86602539 0 0
0.14443667 0.5762431 0.04560424 -1 0 0 0
-0.14443676 0.57991451 0.045700468 1 0 0 0
-0.0023020802 0.33454794 0.046208046 0.49999994 0.86602545 0 0
-0.14443676 0.49450359 0.046850082 1 0 0 0
0.14443667 0.56912267 0.046175346 -1 0 0 0
-0.069893509 0.37357187 0.047834463 0.49999994 0.86602545 0 0
0.070808366 0.37410009 0.047430873 -0.49999994 0.86602545 0 0
-0.14330429 0.41595554 0.047699679 0.49999991 0.86602545 3.5082277e-09 0
-0.14443676 0.45267236 0.048268743 1 0 0 0
-0.14443676 0.51834464 0.048166286 1 0 0 0
-0.13931799 0.58634591 0.048341438 0.50000006 -0.86602539 0 0
-0.13401537 0.58940738 0.048439506 0.50000006 -0.86602539 0 0
0.025458768 0.34791747 0.049329657 -0.49999994 0.86602545 0 0
0.10704581 0.3950218 0.049411736 -0.49999994 0.86602545 0 0
-0.043927424 0.64141971 0.049661413 0.50000006 -0.86602539 0 0
-0.014384372 0.65847635 0.049925596 0.50000006 -0.86602539 0 0
0.010860057 0.66051114 0.049978852 -0.50000006 -0.86602539 0 0
-0.066970907 0.37188447 0.05060542 0.49999994 0.86602545 0 0
-0.10415804 0.39335448 0.050623465 0.49999994 0.86602545 0 0
0.064481065 0.62955296 0.050801199 -0.50000006 -0.86602539 0 0
0.031688746 0.64848566 0.050589308 -0.50000006 -0.86602539 0 0
-0.059452452 0.3675437 0.051699065 0.49999994 0.86602545 0 0
0.11929908 0.40209621 0.051118102 -0.49999994 0.86602545 0 0
0.14443667 0.46629444 0.05104319 -1 0 0 0
-0.10878526 0.60397404 0.051606722 0.50000006 -0.86602539 0 0
-0.1431548 0.41586927 0.052468218 0.49999991 0.86602545 3.5082277e-09 0
0.14443667 0.49661246 0.052979648 -1 0 0 0
-0.10770212 0.60459936 0.052455209 0.50000006 -0.86602539 0 0
-0.0019899372 0.33436769 0.053599987 0.49999994 0.86602545 0 0
-0.10781885 0.39546803 0.054302152 0.49999994 0.86602545 0 0
0.14443667 0.53819114 0.054943383 -1 0 0 0
-0.14443676 0.54236197 0.054939598 1 0 0 0
-0.00024901397 0.33336258 0.055437326 0.49999994 0.86602545 0 0
0.036744539 0.35443336 0.055181511 -0.49999994 0.86602545 0 0
-0.12851775 0.40741858 0.055652197 0.49999994 0.86602545 0 0
-0.14443676 0.51761556 0.055370152 1 0 0 0
-5.296418e-05 0.33324942 0.057406344 0.49999994 0.86602545 0 0
0.14443667 0.51594269 0.057603404 -1 0 0 0
-0.048308998 0.36111003 0.058071584 0.49999994 0.86602545 0 0
0.14443667 0.56485492 0.058748025 -1 0 0 0
0.14443669 0.45508856 0.059913356 -1 0 0 0
0.14443666 0.45890158 0.059389442 -1 0 0 0
0.069624484 0.62658346 0.059834599 -0.50000006 -0.86602539 0 0
0.060521327 0.63183916 0.059714496 -0.50000006 -0.86602539 0 0
-0.12104974 0.4031069 0.060318198 0.49999994 0.86602545 0 0
0.1017335 0.60804528 0.060496382 -0.50000006 -0.86602539 0 0
0.14443667 0.52902108 0.061485216 -1 0 0 0
0.072568186 0.62488389 0.061074156 -0.50000006 -0.86602539 0 0
-0.063809417 0.62994087 0.061242506 0.50000006 -0.86602539 0 0
-0.042498264 0.35775521 0.063567489 0.49999994 0.86602545 0 0
0.10545863 0.39410543 0.063213319 -0.49999994 0.86602545 0 0
0.14443667 0.46686992 0.063126765 -1 0 0 0
-0.037959192 0.64486545 0.063106701 0.50000006 -0.86602539 0 0
0.12810926 0.40718278 0.064814903 -0.49999994 0.86602545 0 0
-0.14443676 0.51389301 0.064285003 1 0 0 0
-0.14443676 0.48907581 0.065440461 1 0 0 0
-0.14443676 0.56943327 0.06590724 1 0 0 0
-0.11728221 0.59906828 0.065790728 0.50000006 -0.86602539 0 0
-0.060578607 0.36819386 0.066844106 0.49999994 0.86602545 0 0
-0.13195886 0.59059465 0.066527709 0.50000006 -0.86602539 0 0
0.028324822 0.65042776 0.067682803 -0.50000006 -0.86602539 0 0
0.035272088 0.35358322 0.068305254 -0.49999994 0.86602545 0 0
0.018486846 0.65610778 0.068238035 -0.50000006 -0.86602539 0 0
0.14443667 0.43982577 0.070100851 -1 0 0 0
-0.13106237 0.59111226 0.070318468 0.50000006 -0.86602539 0 0
-0.028167374 0.65051877 0.070265807 0.50000006 -0.86602539 0 0
-0.026547503 0.65145397 0.07079009 0.50000006 -0.86602539 0 0
0.084938474 0.38225812 0.071983144 -0.49999994 0.86602545 0 0
-0.065749452 0.62882078 0.071405619 0.50000006 -0.86602539 0 0
0.14443667 0.49713233 0.072200425 -1 0 0 0
-0.12659372 0.5936923 0.073921613 0.50000006 -0.86602539 0 0
0.058860675 0.3672021 0.074535407 -0.49999994 0.86602545 0 0
-0.14443676 0.42692646 0.07446672 1 0 0 0
-0.14443676 0.51271641 0.074987426 1 0 0 0
0.08637847 0.38308948 0.075917594 -0.49999994 0.86602545 0 0
0.089722209 0.38502002 0.075191431 -0.49999994 0.86602545 0 0
-0.14443676 0.5313397 0.075504124 1 0 0 0
-0.14443676 0.44783157 0.07601285 1 0 0 0
0.0088587403 0.66166657 0.076719686 -0.50000006 -0.86602539 0 0
-0.14443676 0.50675988 0.077682808 1 0 0 0
0.031258598 0.64873397 0.077804923 -0.50000006 -0.86602539 0 0
0.070755489 0.37406954 0.078824922 -0.49999994 0.86602545 0 0
-0.067173183 0.62799877 0.07847292 0.50000006 -0.86602539 0 0
-0.036950495 0.35455218 0.079401329 0.49999994 0.86602545 0 0
0.11126667 0.3974587 0.079626739 -0.49999994 0.86602545 0 0
-0.050161134 0.63782066 0.079598248 0.50000006 -0.86602539 0 0
-0.073840283 0.3758505 0.080943406 0.49999994 0.86602545 0 0
0.14443667 0.47061628 0.08017005 -1 0 0 0
-0.14443676 0.53203273 0.080966979 1 0 0 0
0.037801776 0.35504374 0.081928514 -0.49999994 0.86602545 0 0
-0.14443676 0.54859173 0.081172459 1 0 0 0
0.11195322 0.6021449 0.081409894 -0.50000006 -0.86602539 0 0
-0.08070866 0.620184 0.08161512 0.50000006 -0.86602539 0 0
0.050814494 0.63744342 0.081641316 -0.50000006 -0.86602539 0 0
0.062484581 0.36929435 0.082325146 -0.49999994 0.86602545 0 0
-0.14443676 0.45966992 0.082793318 1 0 0 0
-0.14443676 0.49434328 0.08265093 1 0 0 0
0.11312839 0.39853355 0.083329245 -0.49999994 0.86602545 0 0
-0.14443676 0.42633265 0.083550915 1 0 0 0
0.14443667 0.45416668 0.083463468 -1 0 0 0
0.14443667 0.4620629 0.083386138 -1 0 0 0
-0.14443675 0.5614062 0.083381563 1 0 0 0
0.01144417 0.66017389 0.083521277 -0.50000006 -0.86602539 0 0
0.054426815 0.3646422 0.084986731 -0.49999994 0.86602545 0 0
-0.072978728 0.3753531 0.084552355 0.49999994 0.86602545 0 0
0.14443667 0.56364977 0.084204361 -1 0 0 0
0.014139438 0.65861773 0.084082827 -0.50000006 -0.86602539 0 0
-0.14443676 0.58220679 0.085833453 1 0 0 0
0.12581638 0.40585899 0.086318344 -0.49999994 0.86602545 0 0
0.14443667 0.43550587 0.086980648 -1 0 0 0
-0.024453508 0.65266293 0.086047113 0.50000006 -0.86602539 0 0
0.14443667 0.44197869 0.087092444 -1 0 0 0
-0.14443676 0.51512855 0.087680638 1 0 0 0
-0.14443675 0.53110361 0.087293945 1 0 0 0
0.14443667 0.53304732 0.087677307 -1 0 0 0
0.14443667 0.47092131 0.08852227 -1 0 0 0
-0.042973425 0.6419704 0.08818692 0.50000006 -0.86602539 0 0
-0.0058946921 0.66337788 0.088171914 0.50000006 -0.86602539 0 0
0.14443666 0.5353654 0.089351103 -1 0 0 0
-0.018558284 0.34393346 0.09005259 0.49999994 0.86602545 0 0
0.14443667 0.51972747 0.090147197 -1 0 0 0
-0.14443678 0.47051236 0.091371663 1 0 0 0
-0.14443676 0.51243961 0.091228157 1 0 0 0
0.14443667 0.55800593 0.092861123 -1 0 0 0
0.14443667 0.57266116 0.092674673 -1 0 0 0
0.13829076 0.58693898 0.092929348 -0.50000012 -0.86602533 -2.0956142e-08 0
-0.056493435 0.63416469 0.092960954 0.50000006 -0.86602539 0 0
0.0067414404 0.662889 0.092896521 -0.50000006 -0.86602539 0 0
0.0040428024 0.66444707 0.092221484 -0.50000006 -0.86602539 0 0
-0.020456128 0.34502918 0.093432538 0.49999994 0.86602545 0 0
-0.14443676 0.44921979 0.093534648 1 0 0 0
0.14443667 0.47686595 0.094158612 -1 0 0 0
-0.10681458 0.60511178 0.094844848 0.50000006 -0.86602539 0 0
0.045186274 0.35930717 0.095172115 -0.49999994 0.86602545 0 0
0.11963353 0.59771067 0.095935047 -0.50000012 -0.86602533 -2.0956142e-08 0
0.064489052 0.62954837 0.095900789 -0.50000006 -0.86602539 0 0
0.03423753 0.35298592 0.097645983 -0.49999994 0.86602545 0 0
0.14443667 0.45943338 0.097866982 -1 0 0 0
0.14443667 0.57629859 0.097136043 -1 0 0 0
0.14365202 0.58384365 0.098345861 -0.50000012 -0.86602533 -2.0956142e-08 0
-0.0092092408 0.33853579 0.10084122 0.49999994 0.86602545 0 0
-0.083829008 0.38161755 0.10079006 0.49999994 0.86602545 0 0
0.14443667 0.55977029 0.10078368 -1 0 0 0
0.082614519 0.61908364 0.10005693 -0.50000006 -0.86602539 0 0
-0.05800347 0.36670712 0.10120377 0.49999994 0.86602545 0 0
-0.14443676 0.54854983 0.10141728 1 0 0 0
0.098816961 0.39027083 0.10293374 -0.49999994 0.86602545 0 0
-0.14443676 0.52119327 0.10297392 1 0 0 0
0.11912718 0.401997 0.10346005 -0.49999994 0.86602545 0 0
0.14443667 0.5812726 0.10318182 -1 0 0 0
-0.14037952 0.58573306 0.10364608 0.50000006 -0.86602539 0 0
0.14443667 0.57713419 0.10420239 -1 0 0 0
-0.038399797 0.35538894 0.10584991 0.49999994 0.86602545 0 0
0.061106395 0.63150138 0.10620713 -0.50000006 -0.86602539 0 0
0.013192055 0.65916467 0.10640115 -0.50000006 -0.86602539 0 0
-0.1181021 0.40140507 0.10772067 0.49999991 0.86602545 3.5082277e-09 0
-0.14443676 0.43263257 0.10782953 1 0 0 0
-0.01036464 0.66079718 0.10739648 0.50000006 -0.86602539 0 0
-0.023229467 0.34663033 0.10889412 0.49999994 0.86602545 0 0
-0.14443676 0.49652177 0.10816418 1 0 0 0
-0.14443676 0.51783836 0.10822725 1 0 0 0
-0.10001007 0.60904038 0.10824278 0.50000006 -0.86602539 0 0
0.0084567424 0.66189867 0.10802032 -0.50000006 -0.86602539 0 0
0.030071961 0.3505809 0.10905458 -0.49999994 0.86602545 0 0
-0.14443676 0.4651168 0.10908028 1 0 0 0
0.14443666 0.58333999 0.10926691 -1 0 0 0
-0.080091834 0.62054014 0.10913816 0.50000006 -0.86602539 0 0
0.12325794 0.40438187 0.11039256 -0.49999994 0.86602545 0 0
-0.078964829 0.37880918 0.11237285 0.49999994 0.86602545 0 0
0.10776708 0.60456181 0.11264569 -0.50000012 -0.86602533 -2.0956142e-08 0
-0.10066396 0.60866284 0.11245763 0.50000006 -0.86602539 0 0
-0.14443676 0.43619353 0.11358182 1 0 0 0
0.14443667 0.57920718 0.1130644 -1 0 0 0
-0.12730485 0.59328169 0.11354927 0.50000006 -0.86602539 0 0
0.1405692 0.5856235 0.11467271 -0.50000012 -0.86602533 -2.0956142e-08 0
-0.090453155 0.61455804 0.11497135 0.50000006 -0.86602539 0 0
-0.04477514 0.64093029 0.11416759 0.50000006 -0.86602539 0 0
-0.054610983 0.36474848 0.11589247 0.49999994 0.86602545 0 0
0.14443667 0.57653821 0.11568654 -1 0 0 0
0.13782573 0.58720738 0.11552273 -0.50000012 -0.86602533 -2.0956142e-08 0
0.11301957 0.60152924 0.11546712 -0.50000012 -0.86602533 -2.0956142e-08 0
-0.082097128 0.61938244 0.11505703 0.50000006 -0.86602539 0 0
-0.032200046 0.3518095 0.11672505 0.49999994 0.86602545 0 0
0.097500332 0.61048925 0.11626989 -0.50000006 -0.86602539 0 0
0.067324758 0.37208882 0.11859188 -0.49999994 0.86602545 0 0
0.11032274 0.60308623 0.11864555 -0.50000012 -0.86602533 -2.0956142e-08 0
0.089204937 0.38472137 0.11982634 -0.49999994 0.86602545 0 0
-0.1392519 0.41361591 0.12155798 0.49999991 0.86602545 3.5082277e-09 0
0.14443667 0.4560425 0.12169953 -1 0 0 0
-0.14443676 0.54174048 0.12180611 1 0 0 0
-0.13395086 0.58944458 0.12168463 0.50000006 -0.86602539 0 0
0.0021499447 0.33446014 0.12202387 -0.49999994 0.86602545 0 0
-0.049885321 0.36202011 0.12277109 0.49999994 0.86602545 0 0
-0.0019623155 0.66564828 0.12229404 0.50000006 -0.86602539 0 0
-0.0093196705 0.66140056 0.12326667 0.50000006 -0.86602539 0 0
-0.0086018359 0.66181493 0.1235503 0.50000006 -0.86602539 0 0
-0.14443676 0.43439716 0.12423991 1 0 0 0
-0.14443676 0.45221743 0.12488933 1 0 0 0
-0.14443676 0.51496625 0.12419631 1 0 0 0
-0.11764481 0.40114105 0.12581573 0.49999991 0.86602545 3.5082277e-09 0
-0.13920711 0.41359004 0.12538587 0.49999991 0.86602545 3.5082277e-09 0
-0.046481498 0.63994509 0.12545291 0.50000006 -0.86602539 0 0
-0.061819956 0.36891061 0.12678389 0.49999994 0.86602545 0 0
-0.14443676 0.55611646 0.12616062 1 0 0 0
0.085943602 0.38283843 0.12716064 -0.49999994 0.86602545 0 0
0.12218617 0.40376309 0.12797013 -0.49999994 0.86602545 0 0
-0.13041188 0.40851215 0.12775786 0.49999991 0.86602545 3.5082277e-09 0
0.062206902 0.36913407 0.12875003 -0.49999994 0.86602545 0 0
-0.14443676 0.51559067 0.12879427 1 0 0 0
0.14443669 0.53239304 0.12838796 -1 0 0 0
-0.14443676 0.56171989 0.12856463 1 0 0 0
0.051904242 0.36318579 0.12974858 -0.49999994 0.86602545 0 0
0.002958528 0.66507304 0.1298417 -0.50000006 -0.86602539 0 0
0.071383558 0.37443218 0.1303221 -0.49999994 0.86602545 0 0
-0.032850005 0.35218477 0.13199696 0.49999994 0.86602545 0 0
-0.034552284 0.35316759 0.13152342 0.49999994 0.86602545 0 0
-0.076025739 0.37711227 0.13148218 0.49999994 0.86602545 0 0
-0.14443676 0.48123559 0.13277635 1 0 0 0
-0.14443676 0.53282225 0.13281414 1 0 0 0
-0.14443676 0.56606317 0.13202505 1 0 0 0
0.023275452 0.34665698 0.13539894 -0.49999994 0.86602545 0 0
0.059970308 0.36784273 0.13556276 -0.49999994 0.86602545 0 0
0.14443669 0.42754781 0.13523605 -1 0 0 0
-0.088203177 0.61585706 0.13614106 0.50000006 -0.86602539 0 0
-0.0036467817 0.33532429 0.13724034 0.49999994 0.86602545 0 0
-0.14443676 0.47876295 0.137787 1 0 0 0
0.13982187 0.58605498 0.13780168 -0.50000012 -0.86602533 -2.0956142e-08 0
-0.061685357 0.36883286 0.13990338 0.49999994 0.86602545 0 0
0.10609023 0.3944701 0.13928297 -0.49999994 0.86602545 0 0
-0.10145666 0.60820514 0.13978013 0.50000006 -0.86602539 0 0
-0.058768436 0.63285124 0.13908614 0.50000006 -0.86602539 0 0
0.10064322 0.39132527 0.14069507 -0.49999994 0.86602545 0 0
0.14443667 0.50053155 0.14044431 -1 0 0 0
0.14443667 0.56013221 0.14026268 -1 0 0 0
0.07943555 0.62091905 0.14017075 -0.50000006 -0.86602539 0 0
-0.051945519 0.36320958 0.14297646 0.49999994 0.86602545 0 0
-0.097707458 0.38963023 0.14214219 0.49999991 0.86602545 3.5082277e-09 0
-0.14443676 0.43775618 0.14259051 1 0 0 0
-0.14443676 0.5058921 0.14229959 1 0 0 0
0.14443667 0.56203282 0.14281937 -1 0 0 0
-0.082198434 0.61932391 0.14383613 0.50000006 -0.86602539 0 0
0.14443667 0.42131457 0.14430811 -1 0 0 0
0.14443667 0.49085623 0.14436246 -1 0 0 0
-0.14443675 0.52753234 0.14409941 1 0 0 0
0.040584292 0.64334977 0.14481467 -0.50000006 -0.86602539 0 0
-0.02556837 0.65201926 0.14408709 0.50000006 -0.86602539 0 0
1.8168961e-05 0.66677064 0.14466846 -0.50000006 -0.86602539 0 0
0.14443667 0.57736915 0.14510117 -1 0 0 0
0.027840288 0.6507076 0.14538239 -0.50000006 -0.86602539 0 0
0.040579114 0.35664722 0.14631248 -0.49999994 0.86602545 0 0
0.10927126 0.39630663 0.14634976 -0.49999994 0.86602545 0 0
-0.098151371 0.3898865 0.14725903 0.49999991 0.86602545 3.5082277e-09 0
-0.10141306 0.39176965 0.14703566 0.49999991 0.86602545 3.5082277e-09 0
-0.14443676 0.41811764 0.14731726 1 0 0 0
-0.14443676 0.55043757 0.14781232 1 0 0 0
0.14443667 0.55127895 0.14717549 -1 0 0 0
0.047025152 0.63963115 0.14700152 -0.50000006 -0.86602539 0 0
-0.0055437088 0.33641949 0.14844522 0.49999994 0.86602545 0 0
-0.076259859 0.37724745 0.14887577 0.49999994 0.86602545 0 0
-0.14443678 0.4235273 0.14835745 1 0 0 0
0.14443667 0.57826465 0.14982772 -1 0 0 0
0.12403652 0.59516859 0.14908032 -0.50000012 -0.86602533 -2.0956142e-08 0
-0.14443676 0.5021944 0.15084811 1 0 0 0
-0.11864141 0.59828353 0.15034038 0.50000006 -0.86602539 0 0
0.066906355 0.37184727 0.15155599 -0.49999994 0.86602545 0 0
0.075667925 0.37690577 0.15153366 -0.49999994 0.86602545 0 0
0.14443667 0.42601621 0.152224 -1 0 0 0
0.14443669 0.43305176 0.15240341 -1 0 0 0
0.14443667 0.47926405 0.15220088 -1 0 0 0
0.14443667 0.48872054 0.15222909 -1 0 0 0
-0.14443676 0.50810301 0.15232801 1 0 0 0
-0.14443676 0.5140624 0.15250592 1 0 0 0
0.14443667 0.5365954 0.15208493 -1 0 0 0
0.060570337 0.6318109 0.15229556 -0.50000006 -0.86602539 0 0
-0.0612057 0.6314441 0.15424709 0.50000006 -0.86602539 0 0
-0.12270974 0.40406531 0.15528378 0.49999991 0.86602545 3.5082277e-09 0
0.10558061 0.60582411 0.15539399 -0.50000012 -0.86602533 -2.0956142e-08 0
0.042974569 0.6419698 0.15501888 -0.50000006 -0.86602539 0 0
0.016251307 0.65739846 0.15538713 -0.50000006 -0.86602539 0 0
-0.031330224 0.35130733 0.15654695 0.49999994 0.86602545 0 0
0.044429906 0.35887048 0.15605769 -0.49999994 0.86602545 0 0
0.066843584 0.37181103 0.15617236 -0.49999994 0.86602545 0 0
-0.14443676 0.51114148 0.15693636 1 0 0 0
-0.11440651 0.60072857 0.15695687 0.50000006 -0.86602539 0 0
-0.033455487 0.64746565 0.15699299 0.50000006 -0.86602539 0 0
3.300166e-07 0.66678095 0.15614726 -0.50000006 -0.86602539 0 0
-0.046442196 0.3600322 0.15731074 0.49999994 0.86602545 0 0
0.14443666 0.42272669 0.15774013 -1 0 0 0
0.04477511 0.64093024 0.15757881 -0.50000006 -0.86602539 0 0
-0.14443676 0.49742514 0.15956706 1 0 0 0
-0.049429215 0.36175677 0.16090247 0.49999994 0.86602545 0 0
-0.064977571 0.37073362 0.16029283 0.49999994 0.86602545 0 0
-0.14443676 0.4616558 0.16060223 1 0 0 0
-0.075826526 0.62300271 0.16005273 0.50000006 -0.86602539 0 0
0.018194748 0.3437236 0.16234531 -0.49999994 0.86602545 0 0
-0.14443676 0.45593083 0.16329777 1 0 0 0
0.010781079 0.66055667 0.16331525 -0.50000006 -0.86602539 0 0
0.062835798 0.36949712 0.16540532 -0.49999994 0.86602545 0 0
0.064547442 0.37048534 0.16514082 -0.49999994 0.86602545 0 0
0.123594 0.40457588 0.16539949 -0.49999994 0.86602545 0 0
-0.14443676 0.44278038 0.16520669 1 0 0 0
-0.077384122 0.62210351 0.16554186 0.50000006 -0.86602539 0 0
-0.092275761 0.38649428 0.16645016 0.49999991 0.86602545 3.5082277e-09 0
-0.14443676 0.4166826 0.16635126 1 0 0 0
-0.14443676 0.43571037 0.16627985 1 0 0 0
0.14443667 0.50513893 0.16732393 -1 0 0 0
0.033512175 0.64743292 0.16859089 -0.50000006 -0.86602539 0 0
0.052146673 0.36332574 0.16917647 -0.49999994 0.86602545 0 0
0.14443667 0.53299421 0.16925631 -1 0 0 0
-0.14443678 0.53734779 0.16910501 1 0 0 0
-0.11487029 0.60046083 0.16947269 0.50000006 -0.86602539 0 0
-0.069151767 0.37314358 0.17196715 0.49999994 0.86602545 0 0
-0.12534885 0.40558901 0.17256922 0.49999991 0.86602545 3.5082277e-09 0
0.14443667 0.56968391 0.1728934 -1 0 0 0
-0.031642798 0.64851224 0.17297626 0.50000006 -0.86602539 0 0
0.054869372 0.36489773 0.17395401 -0.49999994 0.86602545 0 0
-0.13422048 0.41071102 0.17304723 0.49999991 0.86602545 3.5082277e-09 0
0.046844251 0.63973558 0.1730552 -0.50000006 -0.86602539 0 0
-0.14443676 0.5335511 0.17504229 1 0 0 0
-0.14443676 0.45437294 0.17635795 1 0 0 0
0.14443667 0.50555211 0.17607503 -1 0 0 0
-0.14443676 0.52599329 0.17662023 1 0 0 0
0.13581254 0.58836979 0.17674266 -0.50000012 -0.86602533 -2.0956142e-08 0
0.14443667 0.50127381 0.17767486 -1 0 0 0
0.14443667 0.50576335 0.17728117 -1 0 0 0
-0.10463749 0.60636872 0.17728537 0.50000006 -0.86602539 0 0
-0.14443676 0.43560767 0.17815287 1 0 0 0
-0.14443676 0.44779772 0.17983235 1 0 0 0
-0.14443676 0.44898146 0.17930758 1 0 0 0
0.14443667 0.50430709 0.17928481 -1 0 0 0
0.072555788 0.62489104 0.17936711 -0.50000006 -0.86602539 0 0
0.058752511 0.36713964 0.18004191 -0.49999994 0.86602545 0 0
0.14443667 0.52915102 0.1800167 -1 0 0 0
0.044477914 0.64110184 0.18064044 -0.50000006 -0.86602539 0 0
0.13685799 0.41223383 0.18190098 -0.49999994 0.86602545 0 0
-0.076232903 0.6227681 0.18152779 0.50000006 -0.86602539 0 0
-0.020680469 0.3451587 0.18259944 0.49999994 0.86602545 0 0
0.084126033 0.38178906 0.18225881 -0.49999994 0.86602545 0 0
-0.14443675 0.51570433 0.18200119 1 0 0 0
0.14443669 0.52283108 0.18212566 -1 0 0 0
-0.0089754621 0.66159922 0.18286245 0.50000006 -0.86602539 0 0
-0.004207165 0.33564782 0.18378101 0.49999994 0.86602545 0 0
0.12260129 0.40400273 0.18376577 -0.49999994 0.86602545 0 0
0.016336981 0.65734899 0.18391612 -0.50000006 -0.86602539 0 0
0.14019553 0.58583921 0.18457966 -0.50000012 -0.86602533 -2.0956142e-08 0
-0.096793063 0.38910231 0.18573964 0.49999991 0.86602545 3.5082277e-09 0
-0.14443676 0.55351591 0.18510631 1 0 0 0
0.11525015 0.60024142 0.18552969 -0.50000012 -0.86602533 -2.0956142e-08 0
-0.074460715 0.62379128 0.18582769 0.50000006 -0.86602539 0 0
0.0057889204 0.33656108 0.1866471 -0.49999994 0.86602545 0 0
-0.012759089 0.34058529 0.1866954 0.49999994 0.86602545 0 0
-0.12168629 0.59652561 0.18652844 0.50000006 -0.86602539 0 0
0.014309086 0.3414802 0.18779752 -0.49999994 0.86602545 0 0
0.12245649 0.40391916 0.18726642 -0.49999994 0.86602545 0 0
0.099438578 0.60937023 0.18765333 -0.50000012 -0.86602533 -2.0956142e-08 0
0.035526928 0.35373032 0.18889217 -0.49999994 0.86602545 0 0
-0.058645327 0.36707771 0.18851648 0.49999994 0.86602545 0 0
-0.1410355 0.58535433 0.18871634 0.50000006 -0.86602539 0 0
-0.11723891 0.59909332 0.18892726 0.50000006 -0.86602539 0 0
0.11013095 0.60319704 0.18856728 -0.50000012 -0.86602533 -2.0956142e-08 0
-0.048265651 0.63891506 0.18891822 0.50000006 -0.86602539 0 0
-0.1046611 0.39364493 0.18978935 0.49999991 0.86602545 3.5082277e-09 0
0.059362188 0.6325084 0.18965933 -0.50000006 -0.86602539 0 0
-0.14443676 0.45799476 0.19015636 1 0 0 0
0.14443667 0.42614943 0.19145094 -1 0 0 0
0.14443667 0.5561372 0.19194983 -1 0 0 0
0.033608068 0.35262248 0.19206814 -0.49999994 0.86602545 0 0
0.14443667 0.55834937 0.19278909 -1 0 0 0
0.087884359 0.61604106 0.19278583 -0.50000012 -0.86602533 -2.0956142e-08 0
-0.001907961 0.33432037 0.19339828 0.49999994 0.86602545 0 0
-0.14443676 0.41816294 0.1948275 1 0 0 0
0.14443667 0.55691063 0.1946058 -1 0 0 0
0.033339359 0.6475327 0.19549412 -0.50000006 -0.86602539 0 0
-0.056343183 0.36574858 0.19784686 0.49999994 0.86602545 0 0
-0.0024413527 0.33462834 0.19898103 0.49999994 0.86602545 0 0
-0.0649058 0.37069219 0.19858395 0.49999994 0.86602545 0 0
-0.14443678 0.45918304 0.19884774 1 0 0 0
0.14443667 0.45475465 0.19934727 -1 0 0 0
-0.14400077 0.5836423 0.20017163 0.50000006 -0.86602539 0 0
-0.012598412 0.65950751 0.20051181 0.50000006 -0.86602539 0 0
0.13906866 0.58648986 0.20175996 -0.50000012 -0.86602533 -2.0956142e-08 0
-0.085694298 0.61730558 0.20320317 0.50000006 -0.86602539 0 0
-0.05351235 0.63588578 0.20307781 0.50000006 -0.86602539 0 0
-0.0039377999 0.66450775 0.20358072 0.50000006 -0.86602539 0 0
-0.12655932 0.59371209 0.20455806 0.50000006 -0.86602539 0 0
-0.14443676 0.54920322 0.20582013 1 0 0 0
0.12369224 0.59536743 0.20558196 -0.50000012 -0.86602533 -2.0956142e-08 0
0.034657598 0.35322845 0.20688565 -0.49999994 0.86602545 0 0
-0.14443676 0.49886909 0.20673679 1 0 0 0
-0.011462567 0.66016328 0.20692806 0.50000006 -0.86602539 0 0
0.13928367 0.41363433 0.20708336 -0.49999994 0.86602545 0 0
0.14443667 0.53329957 0.20755966 -1 0 0 0
-0.14443678 0.57850122 0.20722631 1 0 0 0
0.0087017389 0.33824283 0.20809239 -0.49999994 0.86602545 0 0
-0.076826259 0.37757447 0.20813067 0.49999991 0.86602545 3.5082277e-09 0
0.14443667 0.56857783 0.20802361 -1 0 0 0
0.077881776 0.62181604 0.20833926 -0.50000012 -0.86602533 -2.0956142e-08 0
0.028954387 0.65006435 0.20889422 -0.50000006 -0.86602539 0 0
-0.014291707 0.34147012 0.20989473 0.49999994 0.86602545 0 0
0.14443669 0.44116953 0.20904806 -1 0 0 0
0.067821905 0.62762415 0.20950048 -0.50000012 -0.86602533 -2.0956142e-08 0
-0.058144417 0.36678851 0.21016689 0.49999994 0.86602545 0 0
0.14443667 0.50847077 0.21030051 -1 0 0 0
0.13132359 0.59096146 0.21093908 -0.50000012 -0.86602533 -2.0956142e-08 0
0.02522002 0.65222037 0.21147354 -0.50000006 -0.86602539 0 0
-0.091790624 0.38621417 0.21249233 0.49999991 0.86602545 3.5082277e-09 0
0.14443667 0.46084437 0.21264955 -1 0 0 0
-0.14443676 0.55844873 0.21205801 1 0 0 0
0.0038054446 0.33541596 0.21323277 -0.49999994 0.86602545 0 0
-0.14443676 0.53657454 0.21340077 1 0 0 0
0.14443667 0.56967413 0.2130314 -1 0 0 0
0.049710367 0.63808084 0.2137084 -0.50000006 -0.86602539 0 0
-0.14443676 0.41913792 0.21480374 1 0 0 0
-0.10667492 0.60519236 0.21460882 0.50000006 -0.86602539 0 0
-0.14443675 0.42917448 0.21561277 1 0 0 0
0.14443667 0.43978098 0.21592641 -1 0 0 0
-0.14443676 0.57278335 0.21522075 1 0 0 0
-0.096740179 0.61092818 0.21529672 0.50000006 -0.86602539 0 0
0.11771886 0.40118387 0.21640778 -0.49999994 0.86602545 0 0
-0.1082314 0.60429382 0.21600789 0.50000006 -0.86602539 0 0
0.14443666 0.42488247 0.21752387 -1 0 0 0
-0.14443676 0.56410658 0.21839118 1 0 0 0
0.078820996 0.37872621 0.21914035 -0.49999994 0.86602545 0 0
0.13826182 0.41304439 0.21994673 -0.49999994 0.86602545 0 0
-0.14443676 0.49936843 0.21958105 1 0 0 0
0.14443667 0.50196189 0.22092289 -1 0 0 0
-0.03227476 0.35185266 0.22177549 0.49999994 0.86602545 0 0
-0.11214497 0.39796573 0.22128251 0.49999991 0.86602545 3.5082277e-09 0
0.13051488 0.40857163 0.22126803 -0.49999994 0.86602545 0 0
0.042331059 0.64234132 0.22193751 -0.50000006 -0.86602539 0 0
0.14443667 0.4415704 0.22231346 -1 0 0 0
-0.14443676 0.50248885 0.22205116 1 0 0 0
0.14443667 0.52004182 0.22264005 -1 0 0 0
0.10021801 0.60892022 0.22230212 -0.50000012 -0.86602533 -2.0956142e-08 0
-0.038027704 0.64482588 0.22260651 0.50000006 -0.86602539 0 0
-0.033140436 0.64764756 0.22226822 0.50000006 -0.86602539 0 0
0.13377476 0.5895462 0.22441508 -0.50000012 -0.86602533 -2.0956142e-08 0
-0.039301567 0.35590959 0.22552031 0.49999994 0.86602545 0 0
-0.14408959 0.41640896 0.22588487 0.50000006 0.86602539 0 0
0.14443667 0.51524353 0.22570764 -1 0 0 0
-0.0059252344 0.66336024 0.22523446 0.50000006 -0.86602539 0 0
0.079032466 0.37884828 0.22649199 -0.49999994 0.86602545 0 0
-0.085021161 0.6176942 0.22642618 0.50000006 -0.86602539 0 0
0.016458865 0.65727866 0.22698443 -0.50000006 -0.86602539 0 0
0.01631302 0.34263718 0.22728603 -0.49999994 0.86602545 0 0
0.083971575 0.38169986 0.2283017 -0.49999994 0.86602545 0 0
0.14443667 0.5516237 0.22832406 -1 0 0 0
-0.14443676 0.50423074 0.22945833 1 0 0 0
0.11063337 0.60290694 0.22937596 -0.50000012 -0.86602533 -2.0956142e-08 0
-0.042293802 0.35763717 0.23187132 0.49999994 0.86602545 0 0
-0.14443676 0.48878005 0.23123923 1 0 0 0
-0.14443676 0.43390423 0.23209919 1 0 0 0
0.14443667 0.46005523 0.23294519 -1 0 0 0
-0.14443676 0.53639597 0.23233315 1 0 0 0
-0.14443675 0.54076022 0.23353395 1 0 0 0
0.022465002 0.65381098 0.2333421 -0.50000006 -0.86602539 0 0
-0.02777354 0.34925389 0.23453787 0.49999994 0.86602545 0 0
0.047631014 0.36071864 0.23447515 -0.49999994 0.86602545 0 0
0.14443667 0.43288368 0.23453616 -1 0 0 0
0.14443667 0.44427896 0.23419361 -1 0 0 0
-0.14443676 0.4185856 0.23591721 1 0 0 0
0.017172331 0.65686673 0.23560384 -0.50000006 -0.86602539 0 0
-0.12598683 0.40595734 0.23639657 0.49999991 0.86602545 3.5082277e-09 0
-0.14443676 0.42816442 0.23620678 1 0 0 0
-0.043974619 0.64139247 0.23610388 0.50000006 -0.86602539 0 0
0.036770467 0.35444829 0.23767278 -0.49999994 0.86602545 0 0
-0.14443676 0.42745602 0.23758197 1 0 0 0
-0.041476499 0.64283472 0.23702239 0.50000006 -0.86602539 0 0
0.13453904 0.58910495 0.23822352 -0.50000012 -0.86602533 -2.0956142e-08 0
-0.12002964 0.59748209 0.2385155 0.50000006 -0.86602539 0 0
-0.089335456 0.61520338 0.23896495 0.50000006 -0.86602539 0 0
-0.018605353 0.65603942 0.23854372 0.50000006 -0.86602539 0 0
-0.14443676 0.43601489 0.23949289 1 0 0 0
0.14443667 0.50875497 0.23929298 -1 0 0 0
-0.13150704 0.5908556 0.23960002 0.50000006 -0.86602539 0 0
-0.047048006 0.6396181 0.2398544 0.50000006 -0.86602539 0 0
-0.018080529 0.34365761 0.24007989 0.49999994 0.86602545 0 0
-0.14443676 0.45369241 0.24007547 1 0 0 0
-0.033840518 0.64724338 0.24031918 0.50000006 -0.86602539 0 0
0.080185644 0.37951404 0.24142769 -0.49999994 0.86602545 0 0
0.066919595 0.6281451 0.24132499 -0.50000012 -0.86602533 -2.0956142e-08 0
0.14443666 0.43716115 0.24296245 -1 0 0 0
0.14443669 0.46372339 0.24301216 -1 0 0 0
0.054515302 0.63530672 0.2434015 -0.50000012 -0.86602533 -2.0956142e-08 0
-0.14443676 0.42149577 0.24403888 1 0 0 0
-0.13090277 0.59120446 0.24493861 0.50000006 -0.86602539 0 0
-0.083813645 0.61839139 0.2441802 0.50000006 -0.86602539 0 0
-0.080112539 0.37947181 0.24529764 0.49999991 0.86602545 3.5082277e-09 0
-0.087160207 0.38354075 0.24594927 0.49999991 0.86602545 3.5082277e-09 0
-0.14443676 0.42055854 0.24554996 1 0 0 0
-0.027965803 0.34936488 0.24657142 0.49999994 0.86602545 0 0
0.035206798 0.35354552 0.24668671 -0.49999994 0.86602545 0 0
0.038637955 0.35552651 0.24660389 -0.49999994 0.86602545 0 0
-0.14443676 0.54047191 0.24619301 1 0 0 0
-0.12825355 0.59273398 0.24691539 0.50000006 -0.86602539 0 0
-0.032135736 0.35177237 0.24756721 0.49999994 0.86602545 0 0
-0.10975993 0.39658874 0.24727109 0.49999991 0.86602545 3.5082277e-09 0
-0.12238351 0.40387696 0.24705172 0.49999991 0.86602545 3.5082277e-09 0
-0.14443676 0.42555979 0.24794303 1 0 0 0
0.14443667 0.42958128 0.24782121 -1 0 0 0
-0.0068418467 0.66283107 0.24788947 0.50000006 -0.86602539 0 0
0.058734357 0.36712918 0.2480254 -0.49999994 0.86602545 0 0
-0.10834748 0.39577323 0.24842301 0.49999991 0.86602545 3.5082277e-09 0
0.14443669 0.54322588 0.24949203 -1 0 0 0
-0.00048255268 0.33349743 0.25012323 0.49999994 0.86602545 0 0
0.05881957 0.36717838 0.2508772 -0.49999994 0.86602545 0 0
0.11339734 0.39868885 0.25018468 -0.49999994 0.86602545 0 0
-0.091421895 0.61399877 0.25050846 0.50000006 -0.86602539 0 0
-0.02250842 0.34621406 0.25125098 0.49999994 0.86602545 0 0
-0.066319548 0.37150845 0.25154239 0.49999991 0.86602545 3.5082277e-09 0
-0.098109052 0.38986212 0.25135291 0.49999991 0.86602545 3.5082277e-09 0
0.10059009 0.39129457 0.25114739 -0.49999994 0.86602545 0 0
-0.14443676 0.49605453 0.25160295 1 0 0 0
-0.085416794 0.38253421 0.25200823 0.49999991 0.86602545 3.5082277e-09 0
-0.14443676 0.46458384 0.25256637 1 0 0 0
0.025701014 0.34805736 0.25342298 -0.49999994 0.86602545 0 0
0.14443667 0.47617111 0.25340787 -1 0 0 0
0.14443667 0.48947453 0.2531389 -1 0 0 0
0.14443666 0.56491727 0.25350067 -1 0 0 0
0.12951237 0.59200716 0.25376976 -0.50000012 -0.86602533 -2.0956142e-08 0
-0.018179085 0.65628552 0.25331452 0.50000006 -0.86602539 0 0
0.035724744 0.35384455 0.254345 -0.49999994 0.86602545 0 0
-0.049753878 0.36194423 0.25411844 0.49999991 0.86602545 3.5082277e-09 0
-0.053944975 0.36436394 0.25451663 0.49999991 0.86602545 3.5082277e-09 0
-0.088490799 0.38430899 0.25401095 0.49999991 0.86602545 3.5082277e-09 0
0.1363232 0.41192508 0.2547957 -0.49999994 0.86602545 0 0
-0.14443676 0.57018358 0.25414345 1 0 0 0
-0.14443676 0.578614 0.25429913 1 0 0 0
-0.085060552 0.61767149 0.25442982 0.50000006 -0.86602539 0 0
-0.068829626 0.62704235 0.25496334 0.50000006 -0.86602539 0 0
0.05696677 0.63389134 0.25422513 -0.50000012 -0.86602533 -2.0956142e-08 0
0.0075234207 0.66243756 0.2546145 -0.50000006 -0.86602539 0 0
-0.034973137 0.35341057 0.25559196 0.49999994 0.86602545 0 0
-0.041902248 0.35741112 0.25515014 0.49999994 0.86602545 0 0
0.14443667 0.47367465 0.25536531 -1 0 0 0
-0.14443676 0.48885202 0.25583434 1 0 0 0
0.14443667 0.48286021 0.25626239 -1 0 0 0
-0.035389237 0.64634925 0.25614777 0.50000006 -0.86602539 0 0
0.017472968 0.3433069 0.25776631 -0.49999994 0.86602545 0 0
0.14443667 0.56873852 0.25761729 -1 0 0 0
-0.14443676 0.49208155 0.25936043 1 0 0 0
0.067793064 0.62764084 0.25970376 -0.50000012 -0.86602533 -2.0956142e-08 0
0.017859435 0.65646994 0.25958833 -0.50000006 -0.86602539 0 0
0.050046027 0.36211297 0.2602776 -0.49999994 0.86602545 0 0
0.14443667 0.45990992 0.26118544 -1 0 0 0
-0.00619089 0.33679312 0.26285446 0.49999994 0.86602545 0 0
-0.019152142 0.34427631 0.26358369 0.49999994 0.86602545 0 0
0.058535293 0.36701423 0.26353994 -0.49999994 0.86602545 0 0
0.12241395 0.4038946 0.26322484 -0.49999994 0.86602545 0 0
0.14443667 0.55800414 0.26358005 -1 0 0 0
-0.1184996 0.59836543 0.26449329 0.50000006 -0.86602539 0 0
-0.0083936742 0.66193509 0.26419914 0.50000006 -0.86602539 0 0
-0.049650114 0.3618843 0.26553175 0.49999991 0.86602545 3.5082277e-09 0
0.074710116 0.37635279 0.26506841 -0.49999994 0.86602545 0 0
-0.11909454 0.40197805 0.26560032 0.49999991 0.86602545 3.5082277e-09 0
0.12912063 0.4077667 0.26529565 -0.49999994 0.86602545 0 0
0.14443667 0.51859856 0.26559943 -1 0 0 0
-0.014629846 0.65833461 0.26541629 0.50000006 -0.86602539 0 0
-0.009861432 0.33891231 0.26613799 0.49999994 0.86602545 0 0
0.14443667 0.43745518 0.26652527 -1 0 0 0
-0.14443676 0.48907775 0.26824981 1 0 0 0
0.08573059 0.61728454 0.26885766 -0.50000012 -0.86602533 -2.0956142e-08 0
0.013333787 0.65908289 0.26813105 -0.50000006 -0.86602539 0 0
-0.026176386 0.34833175 0.26918051 0.49999994 0.86602545 0 0
-0.085390255 0.38251889 0.26901168 0.49999991 0.86602545 3.5082277e-09 0
-0.13580401 0.41162527 0.26998129 0.49999991 0.86602545 3.5082277e-09 0
-0.14443676 0.56097412 0.2691367 1 0 0 0
0.088765077 0.61553264 0.26983523 -0.50000012 -0.86602533 -2.0956142e-08 0
0.076201782 0.62278605 0.27001882 -0.50000012 -0.86602533 -2.0956142e-08 0
-0.092789695 0.38679096 0.27253747 0.49999991 0.86602545 3.5082277e-09 0
0.14443667 0.4997493 0.27202731 -1 0 0 0
0.064664923 0.62944686 0.27238679 -0.50000012 -0.86602533 -2.0956142e-08 0
0.071925491 0.37474504 0.27310252 -0.49999994 0.86602545 0 0
-0.12051275 0.40279689 0.27452928 0.49999991 0.86602545 3.5082277e-09 0
0.14443667 0.49150181 0.2749317 -1 0 0 0
0.14443667 0.41762495 0.27571723 -1 0 0 0
0.14443667 0.47605947 0.27520734 -1 0 0 0
0.14443667 0.53461444 0.27579284 -1 0 0 0
-0.082016237 0.61942911 0.27515537 0.50000006 -0.86602539 0 0
-0.027244056 0.65105188 0.27556762 0.50000006 -0.86602539 0 0
0.14443667 0.46050864 0.27629572 -1 0 0 0
-0.14443676 0.55308241 0.27653056 1 0 0 0
0.14443667 0.55439758 0.27657551 -1 0 0 0
0.097358577 0.61057115 0.27666929 -0.50000012 -0.86602533 -2.0956142e-08 0
0.07693848 0.62236071 0.2766827 -0.50000012 -0.86602533 -2.0956142e-08 0
-0.054372832 0.63538903 0.2769514 0.50000006 -0.86602539 0 0
0.12875621 0.4075563 0.27796692 -0.49999994 0.86602545 0 0
0.13106272 0.40888798 0.27750069 -0.49999994 0.86602545 0 0
-0.14443676 0.41795626 0.27767202 1 0 0 0
0.036675557 0.35439348 0.27838454 -0.49999994 0.86602545 0 0
-0.12785318 0.59296513 0.27902353 0.50000006 -0.86602539 0 0
-0.085044749 0.61768061 0.27965346 0.50000006 -0.86602539 0 0
-0.041891325 0.35740477 0.2803883 0.49999991 0.86602545 3.5082277e-09 0
0.056415845 0.36579055 0.28007048 -0.49999994 0.86602545 0 0
-0.057602644 0.6335243 0.28092629 0.50000006 -0.86602539 0 0
0.025929501 0.65181077 0.28049314 -0.50000006 -0.86602539 0 0
0.032741211 0.64787805 0.28171462 -0.50000012 -0.86602533 -2.0956142e-08 0
0.019597026 0.65546679 0.28121495 -0.50000006 -0.86602539 0 0
-0.14443676 0.51001507 0.28289926 1 0 0 0
0.14443667 0.5348258 0.28202781 -1 0 0 0
0.14443667 0.56718087 0.28318492 -1 0 0 0
-0.14443676 0.56980121 0.28332579 1 0 0 0
0.059133619 0.36735967 0.28414673 -0.49999994 0.86602545 0 0
-0.10394339 0.39323053 0.28441614 0.49999991 0.86602545 3.5082277e-09 0
0.027614105 0.65083814 0.28581524 -0.50000006 -0.86602539 0 0
0.14443667 0.52730423 0.28664008 -1 0 0 0
0.023790371 0.34695423 0.28746074 -0.49999994 0.86602545 0 0
-0.092591874 0.61332321 0.28751907 0.50000006 -0.86602539 0 0
0.04518256 0.64069498 0.28822565 -0.50000012 -0.86602533 -2.0956142e-08 0
-0.14443676 0.51774555 0.28903794 1 0 0 0
-0.090363689 0.38539031 0.29071134 0.49999991 0.86602545 3.5082277e-09 0
-0.14443676 0.43584961 0.29078099 1 0 0 0
-0.14443676 0.47977388 0.29031402 1 0 0 0
-0.065689512 0.62885535 0.29026267 0.50000006 -0.86602539 0 0
0.092500597 0.3866241 0.2910561 -0.49999994 0.86602545 0 0
-0.14443676 0.48200729 0.29132777 1 0 0 0
0.14443667 0.52455574 0.29180926 -1 0 0 0
0.14443667 0.56138277 0.29146466 -1 0 0 0
0.068384424 0.37270063 0.29281667 -0.49999994 0.86602545 0 0
-0.12412186 0.40488058 0.29269537 0.49999991 0.86602545 3.5082277e-09 0
-0.14443676 0.56800377 0.2920723 1 0 0 0
0.14443667 0.5724439 0.29310805 -1 0 0 0
0.11654984 0.599491 0.29336506 -0.50000012 -0.86602533 -2.0956142e-08 0
0.050715104 0.63750076 0.2932629 -0.50000012 -0.86602533 -2.0956142e-08 0
0.021350902 0.65445423 0.29352328 -0.50000006 -0.86602539 0 0
-0.088064156 0.38406265 0.29464734 0.49999991 0.86602545 3.5082277e-09 0
0.096024208 0.38865846 0.29419991 -0.49999994 0.86602545 0 0
-0.14443676 0.5110209 0.29407635 1 0 0 0
-0.046625581 0.36013809 0.29582581 0.49999991 0.86602545 3.5082277e-09 0
-0.14443678 0.45667106 0.29600134 1 0 0 0
-0.019863157 0.65531325 0.29626784 0.50000006 -0.86602539 0 0
0.14443667 0.42187613 0.29741803 -1 0 0 0
-0.090187788 0.61471128 0.29789633 0.50000006 -0.86602539 0 0
0.089901932 0.61487627 0.29711401 -0.50000012 -0.86602533 -2.0956142e-08 0
-0.060778782 0.63169056 0.29702279 0.50000006 -0.86602539 0 0
-0.036985707 0.64542747 0.29758468 0.50000006 -0.86602539 0 0
-0.0096436096 0.33878654 0.29826841 0.49999994 0.86602545 0 0
-0.14443676 0.51528114 0.29849881 1 0 0 0
0.14443669 0.42466572 0.3003346 -1 0 0 0
-0.14228147 0.58463496 0.30043378 0.50000006 -0.86602539 0 0
0.049704038 0.36191553 0.30116102 -0.49999994 0.86602545 0 0
0.14443667 0.42725804 0.30175766 -1 0 0 0
0.14035244 0.58574861 0.30164477 -0.50000012 -0.86602533 -2.0956142e-08 0
-0.077400103 0.62209421 0.30111426 0.50000006 -0.86602539 0 0
0.030902779 0.64893943 0.30134287 -0.50000012 -0.86602533 -2.0956142e-08 0
0.04474337 0.35905147 0.30225867 -0.49999994 0.86602545 0 0
-0.06140504 0.36867103 0.30217868 0.49999991 0.86602545 3.5082277e-09 0
0.14443667 0.48306912 0.30281231 -1 0 0 0
-0.09320122 0.61297143 0.30295745 0.50000006 -0.86602539 0 0
0.14443667 0.4953227 0.30310696 -1 0 0 0
-0.14443675 0.56862605 0.30349895 1 0 0 0
0.062381834 0.63076496 0.3034606 -0.50000012 -0.86602533 -2.0956142e-08 0
0.10228314 0.39227206 0.30485049 -0.49999994 0.86602545 0 0
-0.10312712 0.60724074 0.30497295 0.50000006 -0.86602539 0 0
-0.066852413 0.62818396 0.30454046 0.50000006 -0.86602539 0 0
-0.075151227 0.62339258 0.30598599 0.50000006 -0.86602539 0 0
-0.0046947543 0.66407073 0.30516449 0.50000006 -0.86602539 0 0
0.14443667 0.45923698 0.30681086 -1 0 0 0
-0.087560415 0.61622816 0.30612698 0.50000006 -0.86602539 0 0
0.076764412 0.6224612 0.30737469 -0.50000012 -0.86602533 -2.0956142e-08 0
0.02065973 0.65485328 0.30735844 -0.50000012 -0.86602533 -2.0956142e-08 0
0.013795258 0.34118354 0.30803272 -0.49999994 0.86602545 0 0
0.13757338 0.41264689 0.30904523 -0.49999994 0.86602545 0 0
0.14443667 0.48460722 0.3090075 -1 0 0 0
-0.14443676 0.53372538 0.30966234 1 0 0 0
-0.12626709 0.59388089 0.30946174 0.50000006 -0.86602539 0 0
-0.14443676 0.51068652 0.31082407 1 0 0 0
-0.014259559 0.65854847 0.31050825 0.50000006 -0.86602539 0 0
0.14443667 0.48529214 0.31196898 -1 0 0 0
0.14443667 0.52255887 0.31190452 -1 0 0 0
0.079008378 0.62116563 0.3116785 -0.50000012 -0.86602533 -2.0956142e-08 0
0.043202434 0.35816181 0.31203783 -0.49999994 0.86602545 0 0
0.13490474 0.41110614 0.3125962 -0.49999994 0.86602545 0 0
-0.095668614 0.61154687 0.31230628 0.50000006 -0.86602539 0 0
0.083131962 0.6187849 0.31298983 -0.50000012 -0.86602533 -2.0956142e-08 0
-0.057870872 0.63336945 0.31225085 0.50000006 -0.86602539 0 0
0.013232882 0.65914112 0.31394458 -0.50000006 -0.86602539 0 0
-0.14443676 0.51470035 0.31448638 1 0 0 0
0.14443667 0.54752052 0.31473267 -1 0 0 0
-0.023783039 0.34694993 0.31562164 0.49999991 0.86602545 3.5082277e-09 0
-0.14443676 0.50697428 0.3153162 1 0 0 0
-0.14443676 0.43930399 0.31676787 1 0 0 0
-0.060765471 0.36830178 0.31722897 0.49999991 0.86602545 3.5082277e-09 0
-0.091839232 0.38624221 0.3179585 0.49999991 0.86602545 3.5082277e-09 0
0.14443667 0.43355167 0.3171989 -1 0 0 0
-0.0096470276 0.33878851 0.31840685 0.49999994 0.86602545 0 0
-0.011464739 0.33983797 0.31879503 0.49999994 0.86602545 0 0
0.027752753 0.34924194 0.31826001 -0.49999994 0.86602545 0 0
0.14443667 0.45867836 0.31874985 -1 0 0 0
0.14443667 0.51819742 0.31918472 -1 0 0 0
-0.14443678 0.54650843 0.31919864 1 0 0 0
0.058466069 0.63302577 0.31965494 -0.50000012 -0.86602533 -2.0956142e-08 0
0.016516341 0.65724546 0.3195008 -0.50000012 -0.86602533 -2.0956142e-08 0
-0.1101935 0.60316098 0.3205488 0.50000006 -0.86602539 0 0
0.027927354 0.6506573 0.32053968 -0.50000012 -0.86602533 -2.0956142e-08 0
0.017491678 0.65668231 0.32024094 -0.50000012 -0.86602533 -2.0956142e-08 0
-0.0044446718 0.33578497 0.32199463 0.49999994 0.86602545 0 0
-0.05228737 0.36340696 0.32132027 0.49999991 0.86602545 3.5082277e-09 0
0.087221012 0.38357592 0.32112575 -0.49999994 0.86602545 0 0
0.057014354 0.63386393 0.3215102 -0.50000012 -0.86602533 -2.0956142e-08 0
-0.14443676 0.46997783 0.32261744 1 0 0 0
-0.14443676 0.53695357 0.32298884 1 0 0 0
0.019452035 0.34444949 0.32343036 -0.49999994 0.86602545 0 0
0.053543113 0.63586801 0.32305712 -0.50000012 -0.86602533 -2.0956142e-08 0
-0.064164609 0.37026423 0.32462633 0.49999991 0.86602545 3.5082277e-09 0
0.060265638 0.36801326 0.32567582 -0.49999994 0.86602545 0 0
0.14443667 0.48601618 0.32550079 -1 0 0 0
-0.14443676 0.54394293 0.32590276 1 0 0 0
-0.12215331 0.40374404 0.32656217 0.49999991 0.86602545 3.5082277e-09 0
0.14443667 0.53132743 0.32698226 -1 0 0 0
-0.092561454 0.61334085 0.32622904 0.50000006 -0.86602539 0 0
-0.069868237 0.62644279 0.32672918 0.50000006 -0.86602539 0 0
0.068620652 0.37283701 0.32770532 -0.49999994 0.86602545 0 0
-0.14443676 0.417261 0.32719129 1 0 0 0
-0.14443676 0.42426616 0.32702947 1 0 0 0
-0.10384043 0.60682893 0.32757267 0.50000006 -0.86602539 0 0
0.10420942 0.60661578 0.32763082 -0.50000012 -0.86602533 -2.0956142e-08 0
0.080823526 0.62011766 0.32713425 -0.50000012 -0.86602533 -2.0956142e-08 0
0.14443667 0.50792366 0.32831168 -1 0 0 0
0.091615677 0.61388683 0.32852355 -0.50000012 -0.86602533 -2.0956142e-08 0
-0.14443676 0.47105366 0.32939899 1 0 0 0
0.088872917 0.61547035 0.32969069 -0.50000012 -0.86602533 -2.0956142e-08 0
-0.022430874 0.65383077 0.32920411 0.50000006 -0.86602539 0 0
0.033185437 0.35237849 0.33071557 -0.49999994 0.86602545 0 0
-0.043336399 0.35823911 0.33099633 0.49999991 0.86602545 3.5082277e-09 0
0.04666644 0.36016175 0.33046758 -0.49999994 0.86602545 0 0
-0.14443678 0.45998532 0.33096308 1 0 0 0
0.14443669 0.54411089 0.33031043 -1 0 0 0
0.11365245 0.60116386 0.33018601 -0.50000012 -0.86602533 -2.0956142e-08 0
-0.070912652 0.62583977 0.33075148 0.50000006 -0.86602539 0 0
0.010358485 0.33919936 0.33133298 -0.49999994 0.86602545 0 0
-0.059124403 0.36735433 0.33121026 0.49999991 0.86602545 3.5082277e-09 0
-0.14443675 0.42735678 0.33183295 1 0 0 0
-0.14443676 0.54754269 0.33142596 1 0 0 0
-0.14443676 0.55029947 0.33246681 1 0 0 0
0.14228204 0.58463454 0.3329888 -0.49999857 -0.86602628 0 0
0.11315403 0.60145164 0.33253074 -0.50000012 -0.86602533 -2.0956142e-08 0
0.071717247 0.62537515 0.33294326 -0.50000012 -0.86602533 -2.0956142e-08 0
0.057701897 0.63346696 0.33269912 -0.50000012 -0.86602533 -2.0956142e-08 0
0.0064394968 0.33693671 0.33389208 -0.49999994 0.86602545 0 0
-0.021635806 0.34571028 0.33341405 0.49999991 0.86602545 3.5082277e-09 0
-0.14443676 0.54398447 0.33387277 1 0 0 0
0.14443667 0.45217681 0.33449215 -1 0 0 0
0.14443667 0.47628981 0.33400539 -1 0 0 0
0.048697658 0.63866556 0.3343378 -0.50000012 -0.86602533 -2.0956142e-08 0
0.13341209 0.41024435 0.33540255 -0.49999994 0.86602545 0 0
0.095379516 0.61171377 0.33537108 -0.50000012 -0.86602533 -2.0956142e-08 0
-0.053335328 0.364012 0.33623886 0.49999991 0.86602545 3.5082277e-09 0
-0.14443676 0.44395393 0.33690664 1 0 0 0
0.14209358 0.58474338 0.33683035 -0.49999857 -0.86602628 0 0
-0.13184047 0.59066308 0.33605734 0.50000006 -0.86602539 0 0
0.084937558 0.61774242 0.33643988 -0.50000012 -0.86602533 -2.0956142e-08 0
0.05034589 0.36228606 0.33766344 -0.49999994 0.86602545 0 0
0.079331659 0.37902105 0.3372432 -0.49999994 0.86602545 0 0
-0.029788602 0.35041726 0.33801919 0.49999991 0.86602545 3.5082277e-09 0
0.043237273 0.35818192 0.33851269 -0.49999994 0.86602545 0 0
0.068766333 0.37292111 0.33868766 -0.49999994 0.86602545 0 0
0.14443667 0.47802371 0.33859849 -1 0 0 0
0.096250884 0.61121064 0.33830562 -0.50000012 -0.86602533 -2.0956142e-08 0
-0.0080475993 0.66213489 0.33810359 0.50000006 -0.86602539 0 0
0.0051462725 0.33619002 0.33939123 -0.49999994 0.86602545 0 0
0.10274153 0.3925367 0.33951908 -0.49999994 0.86602545 0 0
-0.12112485 0.40315029 0.33971182 0.49999991 0.86602545 3.5082277e-09 0
-0.084622994 0.61792409 0.33974168 0.50000006 -0.86602539 0 0
0.10922284 0.39627868 0.34049278 -0.49999994 0.86602545 0 0
-0.14443676 0.41664135 0.34045595 1 0 0 0
0.14443667 0.49425375 0.3409231 -1 0 0 0
0.058256902 0.63314652 0.34023836 -0.50000012 -0.86602533 -2.0956142e-08 0
