# .PCD v0.7 - Point Cloud Data file format
VERSION 0.7
FIELDS x y z normal_x normal_y normal_z curvature
SIZE 4 4 4 4 4 4 4
TYPE F F F F F F F
COUNT 1 1 1 1 1 1 1
WIDTH 100
HEIGHT 1
VIEWPOINT 0 0 0 1 0 0 0
POINTS 100
DATA ascii
-0.024886938 0.3526074 0.027561881 0 0 1 0
-0.082857668 0.39656118 0.027561879 0 0 1 0
-0.10352062 0.42340857 0.027561877 0 0 1 0
0.093896985 0.42374408 0.027561879 0 0 1 0
0.13902085 0.4344776 0.027561879 0 0 1 0
0.020773379 0.45041341 0.027561879 0 0 1 0
0.0012428761 0.45543122 0.027561877 0 0 1 0
-0.10113019 0.46754181 0.027561879 0 0 1 0
0.12987529 0.48122284 0.027561879 0 0 1 0
0.09086106 0.51560271 0.027561881 0 0 1 0
0.013051044 0.52570862 0.027561879 0 0 1 0
0.075781189 0.53690362 0.027561879 0 0 1 0
-0.10990527 0.5451656 0.027561881 0 0 1 0
-0.072414562 0.57044047 0.027561879 0 0 1 0
-0.01524315 0.57706887 0.027561881 0 0 1 0
-0.11521047 0.58815712 0.027561881 0 0 1 0
0.055902801 0.60363966 0.027561879 0 0 1 0
0.051357634 0.61441195 0.027561877 0 0 1 0
-0.05185739 0.61876971 0.027561881 0 0 1 0
-0.044999436 0.6188525 0.027561879 0 0 1 0
0.14443667 0.58279848 0.031251863 -1 0 0 0
-0.0053784768 0.3363241 0.033909015 0.49999994 0.86602545 0 0
0.098547935 0.39011553 0.038641296 -0.49999994 0.86602545 0 0
0.091551162 0.61392409 0.041379176 -0.50000006 -0.86602539 0 0
-0.13401537 0.58940738 0.048439506 0.50000006 -0.86602539 0 0
0.11929908 0.40209621 0.051118102 -0.49999994 0.86602545 0 0
0.14443667 0.46629444 0.05104319 -1 0 0 0
-0.10781885 0.39546803 0.054302152 0.49999994 0.86602545 0 0
0.14443667 0.56485492 0.058748025 -1 0 0 0
-0.14443676 0.51389301 0.064285003 1 0 0 0
-0.14443676 0.56943327 0.06590724 1 0 0 0
-0.14443676 0.53203273 0.080966979 1 0 0 0
0.037801776 0.35504374 0.081928514 -0.49999994 0.86602545 0 0
-0.08070866 0.620184 0.08161512 0.50000006 -0.86602539 0 0
0.11312839 0.39853355 0.083329245 -0.49999994 0.86602545 0 0
0.14443667 0.56364977 0.084204361 -1 0 0 0
-0.14443676 0.51512855 0.087680638 1 0 0 0
-0.14443675 0.53110361 0.087293945 1 0 0 0
0.14443667 0.57266116 0.092674673 -1 0 0 0
0.14365202 0.58384365 0.098345861 -0.50000012 -0.86602533 -2.0956142e-08 0
0.14443667 0.5812726 0.10318182 -1 0 0 0
-0.14037952 0.58573306 0.10364608 0.50000006 -0.86602539 0 0
-0.14443676 0.43263257 0.10782953 1 0 0 0
0.089204937 0.38472137 0.11982634 -0.49999994 0.86602545 0 0
-0.1392519 0.41361591 0.12155798 0.49999991 0.86602545 3.5082277e-09 0
-0.14443676 0.45221743 0.12488933 1 0 0 0
-0.13920711 0.41359004 0.12538587 0.49999991 0.86602545 3.5082277e-09 0
0.12218617 0.40376309 0.12797013 -0.49999994 0.86602545 0 0
0.062206902 0.36913407 0.12875003 -0.49999994 0.86602545 0 0
-0.14443675 0.52753234 0.14409941 1 0 0 0
-0.02556837 0.65201926 0.14408709 0.50000006 -0.86602539 0 0
0.10927126 0.39630663 0.14634976 -0.49999994 0.86602545 0 0
-0.0055437088 0.33641949 0.14844522 0.49999994 0.86602545 0 0
-0.12270974 0.40406531 0.15528378 0.49999991 0.86602545 3.5082277e-09 0
-0.11440651 0.60072857 0.15695687 0.50000006 -0.86602539 0 0
3.300166e-07 0.66678095 0.15614726 -0.50000006 -0.86602539 0 0
0.018194748 0.3437236 0.16234531 -0.49999994 0.86602545 0 0
-0.14443676 0.45593083 0.16329777 1 0 0 0
0.064547442 0.37048534 0.16514082 -0.49999994 0.86602545 0 0
0.14443667 0.56968391 0.1728934 -1 0 0 0
0.12260129 0.40400273 0.18376577 -0.49999994 0.86602545 0 0
-0.012759089 0.34058529 0.1866954 0.49999994 0.86602545 0 0
0.13906866 0.58648986 0.20175996 -0.50000012 -0.86602533 -2.0956142e-08 0
0.13928367 0.41363433 0.20708336 -0.49999994 0.86602545 0 0
0.14443667 0.46084437 0.21264955 -1 0 0 0
-0.14443676 0.53657454 0.21340077 1 0 0 0
-0.14443675 0.42917448 0.21561277 1 0 0 0
-0.14443676 0.56410658 0.21839118 1 0 0 0
0.14443667 0.50196189 0.22092289 -1 0 0 0
0.083971575 0.38169986 0.2283017 -0.49999994 0.86602545 0 0
-0.12598683 0.40595734 0.23639657 0.49999991 0.86602545 3.5082277e-09 0
-0.14443676 0.42816442 0.23620678 1 0 0 0
0.038637955 0.35552651 0.24660389 -0.49999994 0.86602545 0 0
-0.14443676 0.578614 0.25429913 1 0 0 0
-0.068829626 0.62704235 0.25496334 0.50000006 -0.86602539 0 0
-0.00619089 0.33679312 0.26285446 0.49999994 0.86602545 0 0
-0.014629846 0.65833461 0.26541629 0.50000006 -0.86602539 0 0
-0.14443676 0.48907775 0.26824981 1 0 0 0
0.08573059 0.61728454 0.26885766 -0.50000012 -0.86602533 -2.0956142e-08 0
0.064664923 0.62944686 0.27238679 -0.50000012 -0.86602533 -2.0956142e-08 0
0.14443667 0.53461444 0.27579284 -1 0 0 0
-0.027244056 0.65105188 0.27556762 0.50000006 -0.86602539 0 0
-0.041891325 0.35740477 0.2803883 0.49999991 0.86602545 3.5082277e-09 0
-0.14443676 0.56980121 0.28332579 1 0 0 0
0.050715104 0.63750076 0.2932629 -0.50000012 -0.86602533 -2.0956142e-08 0
-0.077400103 0.62209421 0.30111426 0.50000006 -0.86602539 0 0
0.062381834 0.63076496 0.3034606 -0.50000012 -0.86602533 -2.0956142e-08 0
-0.075151227 0.62339258 0.30598599 0.50000006 -0.86602539 0 0
-0.087560415 0.61622816 0.30612698 0.50000006 -0.86602539 0 0
-0.0096470276 0.33878851 0.31840685 0.49999994 0.86602545 0 0
-0.011464739 0.33983797 0.31879503 0.49999994 0.86602545 0 0
0.14443667 0.51819742 0.31918472 -1 0 0 0
0.14443667 0.48601618 0.32550079 -1 0 0 0
-0.10384043 0.60682893 0.32757267 0.50000006 -0.86602539 0 0
-0.022430874 0.65383077 0.32920411 0.50000006 -0.86602539 0 0
0.14228204 0.58463454 0.3329888 -0.49999857 -0.86602628 0 0
-0.084622994 0.61792409 0.33974168 0.50000006 -0.86602539 0 0
-0.031216426 0.64875835 0.34270412 0.50000006 -0.86602539 0 0
-0.0094080251 0.66134953 0.34620637 0.50000006 -0.86602539 0 0
0.0091246637 0.66151303 0.34964678 -0.50000012 -0.86602533 -2.0956142e-08 0
