# .PCD v0.7 - Point Cloud Data file format
VERSION 0.7
FIELDS x y z normal_x normal_y normal_z curvature
SIZE 4 4 4 4 4 4 4
TYPE F F F F F F F
COUNT 1 1 1 1 1 1 1
WIDTH 100
HEIGHT 1
VIEWPOINT 0 0 0 1 0 0 0
POINTS 100
DATA ascii
0.36951399 -0.40430909 0.050203253 0 0 1 0
0.34640637 -0.38642773 0.050203249 0 0 1 0
0.71345419 -0.37921974 0.050203249 0 0 1 0
0.76472622 -0.30558774 0.050203249 0 0 1 0
0.78347003 -0.29722512 0.050203249 0 0 1 0
0.42398697 -0.27071747 0.050203249 0 0 1 0
0.52761793 -0.26339734 0.050203249 0 0 1 0
0.34419715 -0.25392064 0.050203249 0 0 1 0
0.40995562 -0.23752445 0.050203249 0 0 1 0
0.73253155 -0.23415178 0.050203249 0 0 1 0
0.45271116 -0.23196267 0.050203249 0 0 1 0
0.6024968 -0.21633883 0.050203249 0 0 1 0
0.45756704 -0.17264831 0.050203249 0 0 1 0
0.74621451 -0.16616774 0.050203249 0 0 1 0
0.62649918 -0.14269975 0.050203249 0 0 1 0
0.68703336 -0.12264181 0.050203249 0 0 1 0
0.76976609 -0.10020762 0.050203249 0 0 1 0
0.77412713 -0.054296728 0.050203249 0 0 1 0
0.78026617 -0.053819187 0.050203249 0 0 1 0
0.54988915 -0.024107389 0.050203249 0 0 1 0
0.6921804 -0.014100653 0.050203249 0 0 1 0
0.78607869 0.024175202 0.050203249 0 0 1 0
0.46712837 0.025358222 0.050203245 0 0 1 0
0.59414107 0.053074691 0.050203249 0 0 1 0
0.43928498 0.054352663 0.050203245 0 0 1 0
0.46213478 0.071315438 0.050203249 0 0 1 0
0.38698483 0.080128014 0.050203249 0 0 1 0
0.76435483 0.089321673 0.050203249 0 0 1 0
0.44920143 0.092739135 0.050203249 0 0 1 0
0.72863573 0.099742532 0.050203249 0 0 1 0
0.69118243 0.11266927 0.050203249 0 0 1 0
0.53771818 0.14271317 0.050203249 0 0 1 0
0.66542786 0.15311049 0.050203245 0 0 1 0
0.71699142 0.19015697 0.050203253 0 0 1 0
0.62621045 0.19843411 0.050203249 0 0 1 0
0.52978492 0.20674436 0.050203249 0 0 1 0
0.37775022 0.22098877 0.050203249 0 0 1 0
0.37505293 0.24873699 0.050203249 0 0 1 0
0.74097228 0.25752389 0.050203249 0 0 1 0
0.37854326 0.29997179 0.050203249 0 0 1 0
0.57827824 0.32502937 0.050203249 0 0 1 0
0.38146821 0.3373647 0.050203249 0 0 1 0
0.56241441 0.37841359 0.050203249 0 0 1 0
0.78298634 0.37949914 0.050203249 0 0 1 0
0.63966185 0.38618413 0.050203249 0 0 1 0
0.50918555 0.38897824 0.050203249 0 0 1 0
0.60726845 -0.39627314 0.44809866 0 0 1 0
0.71311492 -0.38044608 0.44809866 0 0 1 0
0.44627351 -0.36376381 0.44809869 0 0 1 0
0.77141786 -0.35496211 0.44809866 0 0 1 0
0.65356284 -0.35166675 0.44809866 0 0 1 0
0.44774783 -0.33076456 0.44809866 0 0 1 0
0.70079952 -0.27363771 0.44809866 0 0 1 0
0.60782111 -0.24950728 0.44809866 0 0 1 0
0.41900104 -0.24025686 0.44809866 0 0 1 0
0.54256451 -0.21979079 0.44809866 0 0 1 0
0.68590337 -0.21053866 0.44809866 0 0 1 0
0.52964938 -0.19538081 0.44809866 0 0 1 0
0.69930315 -0.18361455 0.44809866 0 0 1 0
0.57464802 -0.14510803 0.44809866 0 0 1 0
0.68249941 -0.14589748 0.44809866 0 0 1 0
0.35944059 -0.12602705 0.44809866 0 0 1 0
0.48342445 -0.11536503 0.44809866 0 0 1 0
0.51336938 -0.093392499 0.44809866 0 0 1 0
0.77052188 -0.082808755 0.44809866 0 0 1 0
0.65141916 -0.075319186 0.44809866 0 0 1 0
0.6261301 -0.062323138 0.44809866 0 0 1 0
0.37660789 -0.053463321 0.44809866 0 0 1 0
0.38356191 0.025457148 0.44809866 0 0 1 0
0.49429166 0.038050652 0.44809866 0 0 1 0
0.34760472 0.043655802 0.44809866 0 0 1 0
0.50987726 0.07218264 0.44809866 0 0 1 0
0.4663313 0.084424973 0.44809866 0 0 1 0
0.4523437 0.091616355 0.44809866 0 0 1 0
0.55958253 0.11253863 0.44809866 0 0 1 0
0.66439366 0.1589032 0.44809866 0 0 1 0
0.55040199 0.16119613 0.44809866 0 0 1 0
0.53359342 0.19427621 0.44809869 0 0 1 0
0.60513556 0.1968739 0.44809866 0 0 1 0
0.53315139 0.20391709 0.44809866 0 0 1 0
0.65242672 0.20611934 0.44809866 0 0 1 0
0.64994562 0.21611041 0.44809866 0 0 1 0
0.61419326 0.230093 0.44809866 0 0 1 0
0.60728508 0.25468704 0.44809866 0 0 1 0
0.57592887 0.26444137 0.44809866 0 0 1 0
0.58286339 0.26423466 0.44809866 0 0 1 0
0.64040864 0.29443583 0.44809866 0 0 1 0
0.73807794 0.2985009 0.44809866 0 0 1 0
0.77681899 0.30802691 0.44809866 0 0 1 0
0.41719031 0.3102963 0.44809866 0 0 1 0
0.36432612 0.32277122 0.44809866 0 0 1 0
0.77706385 0.33345503 0.44809866 0 0 1 0
0.69697464 0.33947206 0.44809866 0 0 1 0
0.44045347 0.34031585 0.44809866 0 0 1 0
0.55643588 0.34455228 0.44809866 0 0 1 0
0.66455537 0.35803339 0.44809866 0 0 1 0
0.36965352 0.36416715 0.44809869 0 0 1 0
0.75328505 0.36471635 0.44809866 0 0 1 0
0.41336274 0.38110149 0.44809866 0 0 1 0
0.37320605 0.39607272 0.44809866 0 0 1 0
