VERSION 0.7
FIELDS x y z normal_x normal_y normal_z curvature
SIZE 4 4 4 4 4 4 4
TYPE F F F F F F F
COUNT 1 1 1 1 1 1 1
WIDTH 100
HEIGHT 1
VIEWPOINT 0 0 0 1 0 0 0
POINTS 100
DATA ascii
-0.716684 -0.137149 -0.383262 0.748122 -0.653699 0.113977 0
1.45713 0.88125 0.738848 -0.191384 -0.535742 0.822407 0
-0.283201 -0.405641 0.68852 -0.577893 0.269205 0.770434 0
0.654755 -0.483762 0.280489 0.0104809 0.68309 0.730259 0
-0.35861 -1.42104 0.487726 0.902227 0.421755 -0.0900545 0
-0.333309 0.984174 0.240193 -0.742785 0.272308 -0.611652 0
0.948383 0.548976 -0.428119 0.13588 -0.0593457 -0.988946 0
-0.755893 -0.922128 -1.21586 -0.998816 0.0127152 0.0469631 0
-0.796469 0.741604 -0.031686 0.918796 -0.227224 0.322773 0
-1.03383 0.226118 0.326523 -0.108727 -0.645295 -0.756156 0
-0.158308 -0.0073138 1.17419 -0.629032 -0.776466 0.0376761 0
0.261836 -0.141326 -0.194522 0.935442 0.0868592 0.342641 0
-1.16751 0.439354 -0.532829 -0.627177 0.778737 0.0147539 0
0.412135 -0.10948 -0.524565 -0.637826 0.435897 -0.634958 0
-0.771775 0.865039 0.802236 0.0197595 0.875041 -0.483645 0
-0.0465784 -1.16951 1.22016 0.18775 -0.852932 0.48709 0
-0.798131 -0.912448 -0.0677934 -0.87699 -0.18909 0.441739 0
0.642925 -0.317615 -0.994059 0.50223 -0.24599 -0.829008 0
1.07898 0.391728 0.395351 -0.501682 0.845308 0.183767 0
-1.05893 1.31126 -0.465138 -0.0705297 0.345162 -0.935889 0
-0.755388 0.688728 0.000237148 -0.938609 -0.1349 -0.317515 0
0.156731 0.815653 -0.654202 0.415501 0.469631 -0.778977 0
0.67229 -0.107024 -0.502036 -0.375365 -0.184862 0.908255 0
0.0466595 0.276785 -1.84222 -0.205784 -0.544993 -0.812795 0
-0.577344 0.506811 0.498148 -0.983919 0.0989817 -0.148683 0
0.989338 0.042503 -0.839182 -0.437451 0.899105 0.0157302 0
0.351805 -0.476388 -0.440356 0.88676 -0.361927 0.287517 0
0.621963 -1.83874 -0.180373 0.680638 -0.729479 -0.0677655 0
0.531075 0.529507 1.72849 0.720262 0.480697 -0.500152 0
0.0829162 -1.11254 -0.265371 -0.924457 -0.10629 -0.366172 0
-0.319424 -0.613818 -0.887155 -0.726316 -0.646905 0.232335 0
0.460548 -1.34651 0.891004 0.407593 0.795076 0.449135 0
-1.5273 -0.295369 0.101448 0.121261 0.403415 0.906946 0
1.20941 0.465068 0.521744 -0.654267 -0.588065 0.475515 0
-0.115568 -0.298727 0.906126 0.232067 -0.430214 -0.872388 0
-0.216615 -0.657644 -0.596677 0.926934 0.123145 -0.354442 0
1.14882 -0.227656 -0.628087 0.353881 0.785928 -0.507037 0
0.347772 -0.842478 0.962985 -0.417915 -0.332539 -0.845438 0
-0.620479 1.18198 0.307217 -0.0383986 0.117396 -0.992343 0
1.156 0.326854 -0.030476 0.5208 -0.615749 -0.591287 0
-0.0790331 0.168415 -0.673894 0.99423 -0.0565249 0.0911715 0
-0.248879 0.909836 0.107963 -0.5584 -0.264357 0.786324 0
-0.876822 -1.45543 0.994724 -0.0914779 -0.314441 0.944859 0
-0.790619 -0.592496 0.741991 0.894035 -0.445462 -0.0475994 0
-0.749349 0.377616 0.181666 -0.18523 0.909956 -0.37104 0
-0.85252 0.011603 -0.22687 -0.718551 0.69109 -0.0779658 0
1.43278 0.582913 -0.115089 -0.963367 0.117487 -0.241083 0
-0.66965 -0.537071 -0.801102 -0.0653167 0.965834 -0.250797 0
0.774921 -0.229165 -0.0282689 0.416579 0.890911 -0.180938 0
-1.16713 0.378585 -0.686489 -0.395717 0.745415 0.536437 0
1.03979 -0.651091 -0.210426 -0.157054 -0.477247 -0.864621 0
0.0703275 0.51972 0.238936 0.979646 0.113233 0.165747 0
0.197969 -0.190606 0.0153951 -0.705206 -0.697259 -0.128509 0
-0.988031 -0.538306 0.619025 -0.698798 0.0243637 0.714904 0
1.14569 -1.25595 -0.892781 -0.583925 0.0666173 -0.80907 0
-0.281489 -0.199634 1.35078 -0.228017 -0.548704 0.804321 0
0.919219 -0.439836 -0.0828467 -0.817952 0.520532 0.24495 0
-0.33616 -0.22133 0.549206 -0.784218 0.137234 0.605119 0
0.218357 1.3785 1.00737 0.408697 -0.499571 0.763803 0
-0.977553 0.539373 -0.106339 0.241662 -0.892973 0.379735 0
1.06448 0.63773 0.887461 -0.406391 0.91078 0.0729858 0
0.94994 0.796204 0.462566 -0.261304 0.963115 0.0642662 0
0.84096 0.533557 -0.43833 -0.784324 0.495012 -0.373898 0
-0.441319 -0.141472 -0.0859764 -0.746653 0.52993 -0.402099 0
-0.204538 -1.04013 -0.300994 -0.214763 -0.97424 -0.068804 0
0.289593 0.4434 0.955188 -0.826754 -0.367472 0.42596 0
0.440564 1.20041 -1.16034 -0.871449 0.0298303 0.489578 0
1.17431 -0.859282 0.476902 -0.316737 -0.617485 -0.719993 0
-1.31718 -0.802476 -0.224858 -0.827678 -0.538768 -0.157096 0
-0.822387 0.524055 -0.511985 0.259248 -0.21944 -0.940551 0
0.78305 -0.313703 0.553193 0.631529 -0.331423 0.700949 0
-0.0320439 1.18964 1.2892 -0.81882 0.531992 -0.215683 0
0.408507 -0.641973 -0.641838 0.765538 0.263409 -0.586999 0
-0.522791 -0.0711305 -0.10084 0.155205 -0.361096 -0.919522 0
-0.345274 -0.0794776 0.183328 0.680861 -0.732272 0.0143225 0
0.0703763 0.849126 -0.0753319 -0.488232 0.0784345 -0.869182 0
0.408436 1.26862 -0.551067 0.873832 -0.197779 -0.444186 0
0.96275 -1.34879 0.167537 -0.514256 -0.717057 -0.4705 0
-1.08969 -0.868802 0.846724 0.221449 -0.800854 0.55641 0
-0.240755 -1.0188 1.40927 -0.899495 0.306993 0.310909 0
0.136571 0.296792 1.23675 0.00861503 0.992697 -0.120326 0
-0.546345 0.434955 1.50548 0.211576 0.973507 0.0867182 0
0.596538 0.944642 -0.570889 0.455892 0.621335 -0.637264 0
1.13161 -0.366491 -0.452644 0.543496 0.57741 0.609269 0
-0.415571 -1.57156 0.186742 0.344926 0.745689 0.570065 0
0.281088 -0.962636 -0.281384 0.175901 -0.951962 -0.250654 0
0.447515 0.906641 0.203197 0.523642 -0.786657 0.327064 0
-0.785047 -0.7148 -0.156693 -0.328608 -0.28795 0.899501 0
-0.481536 0.0963491 1.57591 -0.688045 0.0138432 0.725536 0
-0.224895 0.532745 0.195038 0.414548 -0.879298 0.234491 0
-0.334952 0.74259 0.364808 0.465697 0.465484 0.752629 0
0.0664562 -0.705217 -0.867372 0.369311 -0.0259656 0.928943 0
0.620563 -0.0893922 0.570526 0.467663 -0.350005 -0.811657 0
0.488714 -0.865579 1.22497 -0.905237 -0.0524433 0.421658 0
0.465684 0.888201 1.32077 0.20603 0.288358 -0.935094 0
-0.236479 -0.551779 -1.46558 -0.482275 0.343823 -0.805727 0
-1.14235 -0.400494 0.715977 0.250617 -0.574314 -0.77933 0
0.879454 -0.0821192 0.107995 0.282841 0.959164 0.00209999 0
-0.27553 0.51005 -1.52442 -0.600731 -0.532157 0.5966 0
-0.524975 -0.37684 -0.294608 -0.192118 -0.561602 0.804794 0
