VERSION 0.7
FIELDS x y z normal_x normal_y normal_z curvature
SIZE 4 4 4 4 4 4 4
TYPE F F F F F F F
COUNT 1 1 1 1 1 1 1
WIDTH 811
HEIGHT 1
VIEWPOINT 0 0 0 1 0 0 0
POINTS 811
DATA ascii
-0.178649 -0.0759507 0.49333 0.183337 0.206839 -0.961044 0
-0.308007 0.131012 0.489125 0.737072 0.136425 0.661901 0
-0.140499 -0.389854 1.03569 -0.923397 0.305396 0.232534 0
-0.21658 -0.323255 0.150173 0.569401 0.441382 0.693516 0
-0.253859 0.605221 0.998821 0.999994 -0.00339677 0.000592487 0
-1.09897 0.330348 0.325198 0.760608 -0.644787 -0.0756645 0
-0.260368 -0.306423 -1.0579 0.928093 -0.369963 -0.0420724 0
-0.474368 -0.127087 1.07023 0.407161 -0.654818 0.636736 0
-0.044269 0.169844 0.399338 0.0658639 -0.0694729 -0.995407 0
-0.753714 0.0710488 -0.769466 0.436898 0.775087 -0.456465 0
0.628892 0.578671 0.800598 -0.449281 0.877712 0.166639 0
-0.268129 -0.259454 1.32481 0.263395 -0.348437 -0.899564 0
-0.379197 0.885828 -0.594283 0.904417 -0.279657 0.322215 0
-0.129984 -0.954672 0.809313 0.944254 -0.309056 -0.11344 0
0.420683 -0.203803 -0.0445829 -0.404893 0.880496 -0.246552 0
-0.759105 0.687747 0.0449772 -0.431794 -0.575482 -0.694532 0
0.557562 -0.226228 0.0407547 0.488229 0.872703 -0.00458437 0
-0.349475 0.696056 0.535986 0.521215 0.267463 0.810431 0
-0.236779 -0.912078 0.119277 0.890969 0.366231 -0.268419 0
-0.271657 0.0292056 0.899176 0.924717 0.234633 -0.299742 0
0.808731 0.0802561 0.997812 -0.174264 0.779651 0.601479 0
-0.512525 0.460513 -0.186271 -0.872713 -0.392371 -0.290546 0
-0.742882 0.249336 -0.244112 0.781859 -0.578609 0.23218 0
-0.260991 0.0722344 1.11285 -0.537242 -0.0394493 0.842505 0
0.492584 0.504394 0.85061 0.267315 0.0176881 -0.963447 0
0.0242125 1.30896 -0.121402 0.546198 -0.620724 -0.562467 0
-0.398 0.721607 -0.336153 -0.901901 0.397083 -0.170002 0
-0.41053 -0.113675 1.03506 0.580765 0.263183 -0.770355 0
-0.697919 0.522036 -0.730165 -0.376647 -0.896376 0.233769 0
-0.0555614 -0.670035 -0.162637 -0.197973 -0.977832 -0.0682052 0
-0.703865 -0.14479 -0.76637 -0.891146 0.394606 -0.223932 0
0.649503 1.00228 -0.104723 -0.794103 0.607743 0.00702936 0
-0.688858 -0.358723 -0.401773 -0.867018 0.166762 0.469542 0
-0.110143 -0.0717923 -0.810915 -0.615798 0.426955 0.662195 0
0.107776 -0.404943 -1.10524 0.531463 0.72259 0.442052 0
1.0529 -0.0976124 -0.297804 -0.181516 -0.983385 0.00260835 0
0.228936 0.300242 -0.938916 -0.176784 0.476094 0.861442 0
0.180726 0.374761 0.982378 -0.650977 -0.690395 0.315568 0
-0.0426559 0.059825 1.3704 -0.712236 0.698727 0.0670827 0
-0.410903 -0.242206 0.00321834 0.527496 0.848807 -0.0357098 0
-0.247163 1.03403 -0.0748791 0.507822 -0.0888907 0.856863 0
-0.762354 -0.307029 0.079977 0.579704 -0.58333 -0.56892 0
-0.0569653 0.347904 1.16415 -0.500494 0.727768 -0.468891 0
0.424718 0.351885 1.23347 -0.565133 0.824837 -0.0163602 0
-0.378164 0.195492 1.1571 -0.444416 -0.715341 -0.539242 0
-0.104673 -0.00107083 -0.228284 -0.672485 0.67193 -0.31028 0
0.522178 0.433125 0.206935 -0.554565 0.831205 0.0394449 0
0.376569 -0.454103 -0.23177 0.566184 0.7045 -0.42792 0
-0.302587 -0.389231 -0.990927 0.929459 -0.0818443 -0.359734 0
-0.0455285 0.141507 -0.700907 -0.287553 0.0632125 -0.955676 0
-0.495081 0.545572 -0.185409 -0.319847 -0.947429 -0.00875032 0
0.538745 0.10148 0.910346 0.445703 0.832008 -0.330321 0
-0.0622872 -0.377486 -0.198208 -0.676882 0.728843 0.103049 0
0.951356 -0.535932 0.791751 0.51035 -0.437337 -0.740459 0
-0.0749809 0.627319 0.361131 -0.843712 0.503552 0.185972 0
-0.210993 -0.0105477 1.43495 -0.910942 -0.0733812 -0.405956 0
0.87521 0.146559 0.876492 0.692695 -0.661198 -0.288083 0
-0.160521 -0.03121 0.508823 -0.217155 0.00610244 0.976118 0
-0.298188 -0.0429027 -0.286433 0.572536 0.42675 -0.700062 0
-0.841303 0.306099 0.584862 -0.374246 -0.163215 0.912853 0
-0.565265 -0.00722171 -0.531036 -0.229659 -0.97208 -0.048149 0
0.418419 0.164853 0.421445 0.971304 -0.187182 -0.146733 0
0.317358 -0.0706249 0.517936 0.435882 0.629367 -0.643354 0
-0.947486 -0.492744 0.553137 0.0575443 0.656858 -0.751815 0
0.232972 0.48384 -0.4469 -0.669736 0.738374 -0.0791015 0
0.108339 0.0811384 0.343187 -0.131189 0.573581 0.808575 0
0.0360761 -0.0697299 -0.123568 0.474209 -0.848554 -0.234696 0
0.188435 0.723507 1.19004 0.157583 0.712085 -0.68418 0
-0.782232 0.868804 -0.0314259 0.66682 -0.316598 0.674624 0
0.127631 0.746102 -0.87243 0.637109 -0.687644 0.348192 0
0.165418 0.24665 1.04359 -0.317328 0.934232 -0.162828 0
-0.103815 -0.18931 1.3054 -0.244903 0.879765 0.407476 0
0.34241 0.610091 -0.753542 -0.846236 0.527183 -0.077217 0
0.233038 -0.273799 0.259576 -0.745899 0.167077 -0.644763 0
0.776095 0.68361 -0.632923 -0.88614 -0.258799 -0.38442 0
0.635735 -0.205834 -0.851165 -0.18372 0.785224 0.59133 0
1.2686 0.0919666 -0.168707 -0.305877 0.257846 0.916491 0
0.205999 0.435131 -0.0452834 0.676769 -0.632838 -0.376165 0
-0.254441 -1.24654 0.27432 0.769753 -0.30765 0.559314 0
-0.457436 -0.0936444 0.0412952 0.129526 -0.975131 -0.179838 0
0.0779456 0.219128 0.518766 -0.723754 -0.554117 0.411259 0
-0.432005 0.0168329 0.00369707 -0.629465 0.764682 0.137967 0
0.193468 -0.374586 -0.0290327 0.923005 0.374807 -0.0870675 0
-0.135176 -0.215058 -0.759078 0.604347 0.630612 -0.486922 0
-0.198867 0.266785 0.220149 0.9769 -0.0712982 0.20145 0
-0.432131 0.340257 -0.438579 0.361097 -0.924435 0.122589 0
0.188373 0.349145 -0.416795 0.256592 -0.965545 -0.0433927 0
-0.269116 0.230092 1.20852 0.820725 -0.454236 -0.346526 0
-0.00954591 -0.879047 0.502032 0.550485 0.722765 -0.417824 0
-0.840979 0.260894 -0.69864 0.781214 0.286921 0.55442 0
0.109512 0.348436 -0.910333 -0.872976 0.476223 0.105468 0
-0.0657088 1.07291 -0.337913 0.927659 -0.373408 0.00389594 0
1.16643 -0.25782 0.667346 -0.478977 0.671167 -0.565789 0
0.277902 -0.150881 0.780504 -0.746622 -0.665159 -0.0108823 0
-0.378746 0.534505 1.23371 0.00959012 -0.231337 -0.972826 0
0.153935 0.331099 -0.89005 0.951811 0.188583 0.241851 0
-0.352932 -1.13091 0.0510301 0.927473 0.1121 -0.35669 0
-0.0194354 0.0759673 0.394733 -0.573689 0.797194 0.188049 0
-0.455009 0.0945294 0.00619706 -0.361933 0.899897 0.24329 0
-0.216496 -0.660427 -0.170987 -0.791841 -0.410872 0.451854 0
0.779349 -0.369691 -0.869465 -0.976267 -0.091914 -0.1961 0
-0.32733 -0.081453 -0.309229 0.394687 -0.856039 -0.333795 0
0.351254 -0.515866 0.118636 -0.626083 -0.61495 -0.479434 0
0.0285474 -0.264565 0.3079 -0.60664 -0.689906 -0.394991 0
-0.436747 -0.618527 0.885784 0.917876 -0.253642 -0.305238 0
-0.552753 -0.939795 0.0272508 -0.991484 -0.1302 -0.00273475 0
0.194569 0.740214 0.485119 0.566298 -0.0219025 0.823909 0
0.474199 -0.534206 0.554772 0.499653 0.861926 0.086206 0
-0.404703 0.067791 -0.109591 -0.375059 -0.925902 0.0451203 0
0.179242 0.572099 0.538199 -0.76259 -0.306038 -0.56991 0
-0.239781 -0.519763 1.17356 -0.0283327 0.689805 0.723441 0
0.0893214 -0.316153 -0.363168 0.838689 0.19447 0.508707 0
-0.611752 0.856431 -0.307129 0.47285 0.102056 -0.875213 0
-0.285361 -0.331739 0.272418 0.143969 0.315573 -0.937916 0
-0.613696 -1.08685 0.127842 -0.833392 0.10813 0.542002 0
-0.0746013 -0.289094 0.0414216 0.509517 0.724372 -0.464412 0
-0.524623 -0.900918 -0.548554 -0.534305 0.826211 0.178585 0
0.472599 0.249357 -0.577592 -0.752059 0.0817708 -0.654004 0
-0.241095 -0.251167 -0.276216 -0.336494 0.941592 -0.0132377 0
0.0806552 0.137659 -0.0572562 0.496499 0.406215 0.767123 0
-0.739229 -0.876359 0.339449 -0.641541 -0.135804 0.754972 0
0.101476 0.743414 0.357568 -0.929317 0.345167 0.131264 0
-0.440556 -0.476763 -0.80408 0.95107 0.230839 0.205378 0
0.170309 -0.26032 0.328005 -0.232343 0.944445 0.232466 0
-0.563073 -0.456628 1.18046 -0.955841 0.23733 -0.173326 0
0.0272093 0.344139 1.28153 -0.569374 -0.454894 -0.684752 0
0.173316 0.0633355 -0.760371 0.494372 0.774773 -0.39411 0
0.650706 -0.0621689 -0.737336 -0.0298277 -0.994371 0.101667 0
0.910395 0.252274 0.219706 0.206787 0.31509 -0.92626 0
0.268203 0.000533785 1.25813 0.480899 0.221664 -0.848293 0
-0.0264741 0.426975 -0.323432 0.291189 -0.606393 0.739931 0
0.381834 0.147269 0.130924 -0.318183 -0.809426 0.493548 0
0.301279 -0.218163 -0.0166547 -0.853499 -0.227311 0.468901 0
0.500668 -0.356389 -0.644709 -0.343759 0.937382 -0.0560874 0
1.03277 0.438967 -0.19581 -0.817425 0.166791 0.551359 0
0.593768 0.623299 0.884719 0.800508 -0.539177 -0.261678 0
-0.551956 0.277995 -0.430791 0.280488 -0.636161 0.718767 0
0.387571 -0.356429 -0.113894 -0.0346543 0.169055 0.984997 0
-0.208772 0.0820979 0.398465 0.80434 0.154934 0.573613 0
-0.180998 0.0921363 -0.617875 0.224436 0.412301 -0.88297 0
-0.320453 0.0833645 0.0468866 0.803517 -0.216409 -0.554552 0
-0.25327 -0.375137 0.00013733 -0.800094 0.278774 -0.531164 0
0.520271 0.152128 -0.755824 -0.108961 0.440057 -0.891334 0
0.326254 0.195998 1.19898 -0.927472 0.183117 -0.325981 0
-0.481244 0.445911 -0.535061 -0.142452 -0.803799 -0.577594 0
-0.825624 0.388006 0.505533 -0.337528 -0.940337 0.0428993 0
0.25828 0.245107 -0.186615 0.621704 -0.394489 0.676655 0
0.17882 1.1429 0.114759 -0.344634 -0.606904 -0.716167 0
-0.0182126 1.14208 -0.12152 0.967614 -0.227119 0.110184 0
-0.0473232 -0.196105 -0.25066 -0.984813 0.135645 -0.108364 0
-0.224255 0.367343 -0.356932 -0.425861 0.730915 -0.533297 0
-0.650953 0.748972 -0.171538 0.892163 0.443724 -0.0845817 0
-0.165614 -0.268076 0.439263 0.399733 -0.856002 -0.327832 0
-0.266142 -0.0802525 -0.493054 -0.317388 0.731245 0.603776 0
-0.0657321 -0.116643 0.452612 0.702982 -0.709829 -0.044254 0
0.604787 0.00267925 0.235902 -0.984239 0.0155552 0.176156 0
-0.292416 0.602365 1.20084 0.437307 0.896169 -0.0751206 0
-0.0588824 -0.779883 -0.634011 -0.629307 0.654674 -0.418778 0
0.280381 0.0672779 1.36164 0.0796024 -0.790451 -0.607331 0
0.187767 0.0617782 1.32581 -0.70959 0.704604 0.00374107 0
0.178632 0.224428 -0.347757 -0.606913 -0.764203 -0.218288 0
-1.02726 -0.191294 -0.111859 0.223744 0.86937 -0.440607 0
0.744079 -0.75118 0.396164 0.786531 0.617367 -0.015097 0
0.173753 0.59694 0.572556 -0.57193 0.671495 -0.471158 0
0.143714 -0.516517 0.864408 0.496089 0.852042 -0.167092 0
0.181737 -0.249326 0.40491 -0.926286 0.372837 -0.0546554 0
-0.0876878 -0.154721 0.488116 0.992202 -0.124225 0.0101646 0
-0.402903 0.298509 0.463694 0.0332583 -0.998536 -0.042648 0
0.784252 -0.303507 -0.528269 0.833632 0.206276 -0.512355 0
-0.118266 0.072125 0.542672 0.368678 0.855564 0.363439 0
-0.268431 -0.28201 -1.08519 -0.761787 0.644194 0.0685123 0
-0.187625 -0.336153 0.0787402 0.608274 -0.17474 -0.774254 0
0.00573675 0.351697 -0.315578 -0.3692 -0.928032 -0.0494847 0
0.216788 0.0274829 -0.460192 -0.485146 0.677681 0.552614 0
0.363003 -0.486895 -0.608788 0.885082 0.463344 0.0440758 0
0.343737 -0.296632 0.5296 0.166698 -0.0633494 -0.983971 0
-0.409922 0.214406 -0.775288 0.858171 0.513015 0.018913 0
0.237112 -0.354864 0.803068 -0.735858 0.312731 0.600593 0
-0.139381 0.473191 0.601094 -0.510448 0.622584 0.593155 0
-0.215335 -0.0151203 0.936726 0.264516 0.391258 0.881447 0
-0.109211 0.347931 1.23514 0.697499 -0.714255 -0.057746 0
0.131166 -0.371673 -0.896231 -0.0598431 0.993574 -0.096073 0
0.440025 -0.137767 0.0606453 -0.274527 0.90167 -0.334104 0
0.488235 -1.11512 0.365098 0.789225 -0.117748 -0.60271 0
-1.03242 0.701027 0.21222 0.694669 0.719142 -0.0164393 0
0.391949 0.270375 0.736738 -0.740182 -0.519163 0.427319 0
0.0037009 -0.265358 0.460192 -0.415147 0.817881 -0.398401 0
-0.0412999 0.486521 -0.98498 -0.0690271 0.968554 -0.239037 0
-0.113134 -0.203786 -1.15468 -0.0786393 0.995547 0.0519826 0
-0.633762 0.38706 -0.954496 0.831809 -0.00638338 0.555025 0
-0.0214297 -0.261934 0.897967 -0.225047 0.959068 0.171877 0
0.332049 -0.112235 -0.464959 0.516474 0.852966 -0.0755201 0
0.115053 0.285544 0.909329 0.295123 0.316949 0.901358 0
-0.00246351 -0.582395 -0.198348 0.956739 -0.0697481 -0.282462 0
-0.18997 0.179171 1.22462 0.57362 0.818878 0.0199916 0
-0.455076 -0.60493 0.536816 0.752331 -0.616458 -0.232331 0
-0.3655 0.671694 0.25274 0.965327 0.137038 0.22218 0
0.0282783 0.495582 0.90208 -0.924561 0.216704 0.313412 0
-0.500702 0.150815 -0.504593 0.962161 -0.133906 -0.237307 0
0.374881 0.0628635 0.126514 -0.972849 -0.220461 -0.070434 0
0.537358 0.119633 0.90252 -0.69376 0.720205 -0.00139785 0
0.514702 -0.79686 -0.401116 -0.0735841 0.832031 -0.549826 0
-0.08117 1.08949 -0.146384 -0.0214107 0.391338 -0.919998 0
0.603109 -0.474191 -0.824927 0.855103 0.446146 0.264107 0
0.317672 -0.370337 -0.826052 0.693905 0.614187 -0.375859 0
-1.00462 -0.770514 -0.103581 0.844715 0.36811 -0.388526 0
0.890301 -0.645782 -0.310737 -0.378192 0.853157 -0.359298 0
0.0141214 0.204161 0.260408 0.40623 -0.00372495 0.913763 0
-0.314339 -0.564235 0.0923651 0.967868 0.243301 0.063531 0
-0.585631 0.583745 -0.267861 0.917448 0.389705 0.0801192 0
0.309444 0.840755 -0.304229 0.858629 -0.509619 0.0551734 0
-0.529675 0.940083 -0.343693 0.929379 -0.188922 0.317118 0
0.334343 1.02886 0.278119 0.987746 0.0251038 -0.154038 0
0.0310263 0.257516 -1.09366 0.105852 -0.945663 0.307436 0
-0.193697 -1.05006 0.491343 0.716879 -0.69222 -0.0831636 0
0.316177 0.006595 -0.043039 -0.461742 -0.840439 0.283649 0
0.00566238 0.965652 0.581439 -0.971544 -0.193436 0.136691 0
-0.563074 0.930372 -0.198144 -0.885039 0.0844682 0.45779 0
-0.032539 0.95453 0.421867 -0.0776139 -0.32104 0.94388 0
0.450204 0.697929 1.14887 0.817499 -0.556125 -0.149733 0
-0.360907 0.00264109 -0.943308 0.202432 -0.867737 0.453931 0
0.337853 0.212447 1.2332 0.858818 0.03634 -0.510991 0
-0.519879 0.00266332 -0.348631 0.495251 0.837943 -0.229299 0
-0.319856 -0.167998 -0.0281501 0.262167 -0.624414 0.735782 0
-0.453219 -0.793135 0.946061 0.943793 -0.291759 0.155344 0
-0.377564 -0.0592739 -0.869119 0.712521 0.542321 -0.445197 0
-0.56786 0.145107 -0.400957 0.570462 0.341386 -0.747013 0
-0.552884 -0.882487 -0.0822829 -0.102583 -0.2356 0.966421 0
0.536038 -1.12982 0.526505 0.249205 0.957499 0.14523 0
-0.0470129 0.370796 -0.249334 0.269395 0.486973 0.830833 0
-0.257081 0.690937 0.12748 -0.18288 0.475939 0.860254 0
-0.273454 0.726584 -0.736497 0.990947 0.0774533 -0.109655 0
-0.619077 0.817062 0.548537 -0.696883 -0.183327 0.693358 0
0.631571 0.883303 0.329531 0.782667 -0.622422 -0.00478646 0
-0.032647 -0.249668 -0.610897 -0.994303 -0.102777 -0.0282508 0
0.141437 0.107618 1.36951 0.0332995 -0.0542863 -0.99797 0
-0.326107 0.401434 0.589396 -0.332199 0.869389 -0.365797 0
0.173908 -0.489775 -0.597887 0.389591 0.872078 0.296139 0
-0.145336 -0.172327 -0.976424 -0.757597 0.226448 0.612183 0
-0.241383 0.0511375 0.996531 0.646292 -0.474966 0.597255 0
0.816344 0.0627408 0.863484 0.235046 0.971984 -0.00120503 0
0.521035 -0.0194381 -0.82692 -0.704124 0.693164 -0.154055 0
0.215287 -0.0289352 1.28379 -0.563671 0.621204 0.544409 0
-0.232323 0.94292 -0.141195 -0.312477 -0.864056 0.394671 0
0.508855 0.342314 0.332389 0.140138 -0.989946 -0.0191812 0
-0.500754 -0.249541 0.461733 -0.471144 0.878978 0.0736303 0
-0.386809 -0.0411182 -1.09869 0.0814961 0.985756 0.14712 0
0.0522572 -0.108792 -0.310975 0.159614 -0.444549 0.881419 0
0.0326066 -0.129596 -0.646926 -0.440837 -0.377229 0.81447 0
-0.519778 -0.810612 -0.595841 -0.514919 0.855721 0.050983 0
0.324812 -0.272095 0.855822 -0.420445 0.666605 0.615519 0
-0.0313906 0.327606 -0.209423 -0.763518 -0.642868 0.0613257 0
0.16735 -0.734248 0.502843 0.502263 0.808485 0.30673 0
-1.02963 0.0230689 -0.612647 0.735375 -0.67191 -0.0880898 0
-0.252472 -0.260462 -0.203661 0.146941 0.989144 -0.00134469 0
-0.0878692 -0.0108235 0.272826 -0.939467 0.261004 -0.221987 0
-0.0566113 -0.118436 0.303858 -0.126415 -0.598317 -0.791224 0
0.146554 0.321084 -0.312151 0.145072 0.640794 -0.753882 0
0.8124 -0.752237 0.194477 0.420258 0.851431 -0.313765 0
-0.626814 -0.372611 -0.0463616 0.839328 0.0686797 0.53927 0
-0.745066 0.53188 -0.131577 0.0756752 0.994261 -0.0756216 0
-0.241461 -0.763177 0.530087 -0.524844 0.824804 0.210329 0
0.304252 -0.300496 0.442961 0.741526 0.351155 0.57169 0
-0.813589 -0.662053 0.186655 -0.984692 0.0992233 0.143307 0
0.64119 -0.503501 0.315312 0.782689 0.427393 0.452475 0
-0.428752 0.0716585 -0.90797 -0.311515 -0.845714 0.433275 0
0.23857 0.154996 0.422095 -0.217536 0.971022 0.0989641 0
0.056307 -0.156106 -0.988527 -0.543188 -0.729478 -0.415703 0
0.407972 0.484661 1.26933 -0.125082 0.92718 -0.353116 0
-0.140566 -0.157812 -0.212437 0.201755 0.2605 0.944158 0
-0.349861 0.147763 -0.860335 0.245875 0.777292 -0.579105 0
-0.229066 0.115599 1.21493 -0.559822 0.339459 -0.755888 0
-0.164503 -0.230718 0.37303 -0.440342 -0.842068 -0.31148 0
-0.0789012 0.155157 0.0677852 -0.921702 0.246842 0.299223 0
0.484896 0.0293899 0.937163 -0.727263 0.139775 -0.671975 0
-0.671076 0.175365 0.440533 0.409466 0.0393425 0.911477 0
-0.850789 -0.303885 -0.429139 -0.511914 -0.766897 -0.387057 0
0.0777337 -0.0365679 1.35349 0.506257 -0.774469 -0.379344 0
-0.419707 -1.21034 0.42192 0.0454081 0.700498 0.712208 0
0.095519 -0.74467 0.266589 0.66366 0.137091 0.735365 0
-0.212931 0.425289 0.473144 -0.820532 -0.564727 -0.0883766 0
0.337971 0.0529927 0.486329 -0.131246 -0.591672 0.795424 0
0.0121159 0.301323 0.208978 0.905234 -0.209911 0.369445 0
0.117465 0.362916 1.24054 0.520326 -0.593586 -0.613936 0
0.176045 -0.186945 0.949872 0.446151 0.196306 0.873163 0
-0.039131 0.480708 -0.854272 0.909927 -0.414025 -0.0248029 0
0.114618 -0.446449 -0.0361706 -0.473336 0.519257 -0.711565 0
0.238933 0.332383 0.682504 -0.960426 0.116812 -0.252859 0
0.397349 0.220033 -0.909876 0.0913467 -0.569234 0.817085 0
0.481757 -0.226806 0.95199 -0.548709 -0.768627 -0.328834 0
0.519717 0.148649 -0.728104 0.912845 -0.0766114 0.401055 0
-0.0852226 0.087181 -1.15261 -0.757094 -0.308543 0.575856 0
0.155652 0.0612309 0.717793 -0.57456 0.811348 0.10768 0
-0.0107395 -0.107837 -0.760153 0.543751 -0.75471 -0.36708 0
0.222709 0.20299 0.901124 0.467478 0.872862 -0.139916 0
0.394175 -0.431225 -0.446336 0.818432 0.540814 0.194135 0
0.267737 0.0305583 -0.120572 -0.148072 -0.473447 -0.868287 0
0.676439 0.117066 0.577489 0.0933382 -0.990521 0.100777 0
0.156015 0.359631 -0.433495 0.605562 -0.775839 -0.177115 0
0.239024 0.128973 -0.46795 -0.617793 -0.786238 0.0127209 0
0.148385 1.25083 -0.0534749 0.980124 -0.129914 0.149931 0
-1.04225 -0.0827035 0.219027 -0.65733 0.733713 -0.171995 0
-0.0935896 -1.04645 0.160073 -0.54694 0.194748 0.814205 0
-0.300466 -1.19295 0.240259 -0.660381 -0.0249181 -0.750517 0
-0.523076 0.12866 -0.691458 -0.744499 -0.0411349 -0.666355 0
-0.013785 -0.127521 0.364097 0.296098 -0.391412 0.871276 0
0.0218116 0.185919 -0.290437 -0.564099 0.532826 -0.630784 0
-0.415611 -0.78356 0.295438 0.429042 -0.884356 -0.18395 0
0.466993 -0.420675 0.876034 -0.276923 -0.871032 -0.405729 0
-0.168119 -0.415394 -0.816645 0.308237 -0.790598 -0.529097 0
0.479479 -0.708754 0.138329 -0.641592 -0.317847 -0.698092 0
-0.679012 0.334905 1.05791 0.736484 0.479801 -0.476847 0
-0.0352094 0.224965 0.383653 0.248136 -0.550924 -0.796814 0
0.249451 -0.530122 -1.00864 -0.802068 -0.585986 0.11536 0
-0.384761 0.189115 0.781129 -0.544728 -0.837632 -0.0405511 0
-0.125053 -0.17448 -1.00208 0.644338 -0.626334 0.438786 0
-0.131432 -0.431433 -1.04892 -0.570707 -0.819854 0.0461859 0
0.264033 0.251044 -0.808363 -0.942815 0.314991 0.108998 0
-0.260307 -0.098793 -0.263578 0.341257 0.939411 -0.0324298 0
-0.755069 -0.443696 0.725336 0.265298 -0.323036 0.908441 0
-0.0801453 0.530981 0.665958 0.713645 0.034876 0.699639 0
0.170047 -0.266978 -0.493779 0.329236 -0.775921 -0.538099 0
-0.910643 0.191136 -0.310285 0.124873 0.977468 -0.170186 0
0.180616 0.614712 -0.181967 -0.976162 0.0201621 0.216103 0
0.403162 0.230762 -1.10349 0.505773 -0.714825 0.482928 0
-0.278785 0.206382 -0.292549 -0.828304 0.468403 0.307427 0
0.119738 -0.119293 1.00134 0.809916 -0.052111 0.584227 0
-0.773953 0.263438 -0.0457009 -0.00156558 -0.972545 0.232711 0
-0.287859 -0.888553 0.140135 0.892613 -0.122491 -0.433864 0
0.0177659 0.272151 1.01643 0.394269 -0.883404 -0.253276 0
0.175392 -0.196399 0.313846 -0.970326 0.167582 0.174309 0
0.0819985 0.464008 -0.89448 -0.84093 -0.533543 0.0903787 0
-0.246194 -0.0719066 0.445018 0.906148 0.398389 -0.142062 0
0.161937 0.185847 0.742255 0.899099 -0.378191 -0.220437 0
-0.230793 -0.0491043 0.252615 -0.140755 0.752611 -0.643246 0
-0.537235 0.0354478 -0.755266 -0.101732 -0.989496 0.102708 0
-1.06465 -0.109664 -0.439746 0.225389 -0.892402 -0.390919 0
-0.673776 -0.49736 0.126427 0.309197 0.807313 -0.502635 0
0.253395 0.521123 1.00584 -0.532789 -0.22307 -0.816318 0
-0.58197 -0.268058 -0.539913 -0.552096 0.0674734 0.831046 0
-0.244795 0.172136 1.11411 0.403055 -0.915164 0.00454945 0
-0.247407 -0.140231 0.342931 0.982145 -0.0571541 -0.179236 0
0.475315 -0.353321 1.12733 0.305449 0.0760677 -0.949165 0
-0.301433 -0.252367 0.199416 -0.871065 0.489175 -0.0442061 0
0.451309 0.795957 0.0117222 -0.951685 0.25872 0.165407 0
-1.16689 -0.0890113 0.240233 -0.751499 -0.0280527 0.659138 0
0.858879 0.974381 0.280207 0.605035 -0.796199 -4.88511e-05 0
-0.121223 -0.173966 -0.523805 -0.165992 -0.236631 0.957315 0
-0.0924423 -0.762931 0.108452 -0.0317896 -0.730312 0.682374 0
-0.0836556 -0.707271 -0.381895 0.961721 -0.265948 0.0660621 0
0.390539 -0.0284898 -0.0576563 0.82481 0.349998 -0.444061 0
0.0434708 0.288365 0.58948 0.967811 0.246692 0.049842 0
-0.577491 0.452877 -0.385455 -0.523715 -0.842802 -0.12413 0
-0.0824534 -0.148121 -1.09604 -0.476078 0.142084 0.867849 0
-0.742309 0.60585 -0.271464 -0.519229 -0.457214 -0.72205 0
0.384751 -1.03426 -0.0413248 -0.163641 -0.835151 0.525114 0
-0.509754 0.0969755 -0.618291 -0.284455 0.293605 0.912623 0
-0.854511 0.644462 0.333162 0.689052 -0.599923 -0.40657 0
0.435753 0.740697 0.778251 -0.87338 0.169246 0.456688 0
0.122838 0.209848 -0.0974742 -0.158626 -0.717691 0.678054 0
0.433904 0.651244 -0.710103 0.546089 -0.610714 -0.573424 0
-0.419005 0.118439 -0.6007 -0.409879 0.882982 0.228784 0
0.274723 -0.0209073 -0.32283 0.319003 0.740731 -0.591232 0
-0.834767 -1.02187 0.0458987 0.121633 0.879757 -0.459601 0
-0.225576 -0.754693 0.395347 -0.77266 0.618005 -0.145143 0
0.26211 -0.0520541 0.840792 -0.898092 0.438223 0.0372997 0
-0.190218 -0.0988141 0.439512 0.889781 -0.380817 -0.251534 0
0.0789918 0.363496 1.15536 0.697067 -0.436123 -0.569116 0
-0.582798 0.333558 0.0369177 -0.287984 0.556811 0.779119 0
-0.0723007 -0.0125638 0.930593 -0.996031 -0.0210142 0.0864935 0
-0.271934 -0.209911 -0.417765 0.526888 0.629888 0.57064 0
-0.400465 -0.15057 0.0179028 -0.143309 -0.932226 0.332291 0
-0.224116 -0.253136 -0.797363 -0.667474 -0.743775 0.035747 0
-0.502494 -0.0235162 0.470372 0.696049 0.712802 0.0861938 0
1.18206 0.46264 0.36458 0.381041 -0.91894 0.101767 0
0.100052 -0.188347 -0.827301 -0.292865 -0.152414 -0.943928 0
0.204833 0.0724752 0.768037 -0.48573 -0.162736 0.858827 0
1.08444 -0.219191 0.330044 -0.13661 -0.985977 -0.0958536 0
-0.132761 0.302169 0.483177 0.44316 0.886633 0.132251 0
-0.155959 0.659525 -0.351405 0.879435 -0.428431 0.207462 0
-0.0607045 -0.206369 0.758678 -0.9209 -0.353291 -0.164708 0
-0.881936 0.719313 0.52519 0.756216 0.169133 -0.632085 0
-0.0114898 1.04437 -0.0821559 0.898072 -0.0848176 -0.431592 0
0.128023 -0.0777518 0.387526 0.779022 -0.623263 -0.0683253 0
0.828676 0.0805688 -0.62911 -0.0720911 0.810495 -0.581293 0
0.314222 0.265094 1.03457 -0.961805 -0.266631 -0.0619543 0
0.254726 -0.219798 0.678488 -0.71516 0.41446 0.562823 0
0.281063 0.42328 0.125945 -0.991759 -0.127462 0.0129237 0
-0.440493 0.645657 0.120482 0.242737 -0.361624 0.900171 0
0.371616 -0.0387218 0.0986207 -0.760423 -0.609576 -0.223995 0
-1.25009 0.281454 0.325812 0.944849 0.30324 0.123717 0
0.229416 -0.142575 0.211284 -0.233316 -0.95036 0.20586 0
-0.402962 0.184432 -0.719429 0.276608 0.511728 -0.813402 0
-0.634893 -0.915629 -0.212972 0.548738 0.782318 -0.294729 0
-0.0727607 -0.173787 -0.956565 -0.896008 0.184995 0.403667 0
-1.15743 0.469476 -0.0759103 0.989448 0.128267 0.0673857 0
0.0710074 0.740751 -0.836021 0.531752 -0.829925 0.168712 0
0.923728 -0.520689 -0.54204 0.570716 0.757464 0.317067 0
-1.12548 -0.220082 -0.0140108 -0.736558 0.201169 0.645765 0
0.0414509 -0.310771 0.656729 0.141926 0.844462 -0.51647 0
-0.263858 0.115079 0.39712 0.00385742 -0.990236 0.139348 0
0.0563667 0.399001 -0.80904 0.349259 -0.862664 -0.365827 0
-0.288155 0.0359623 0.140912 -0.172113 -0.58618 -0.791688 0
-0.48978 0.916286 0.777189 0.810254 0.575683 0.109896 0
-0.59478 0.581474 -0.0886287 -0.309917 0.061898 -0.948746 0
-0.59375 0.323358 -0.190527 0.255097 0.0623891 0.964901 0
-0.219462 -0.558728 0.127219 0.540023 0.567531 0.621517 0
0.297012 -0.0297736 0.0776478 -0.845025 -0.533075 0.0419965 0
0.122304 0.398801 0.989564 -0.891209 -0.264733 -0.368324 0
0.517176 -0.122979 0.943423 -0.106674 0.99376 -0.0325908 0
0.2547 0.10231 -0.84049 0.133339 0.381292 -0.914788 0
-0.653284 0.961777 0.0610552 0.989764 -0.142487 -0.00802153 0
-0.455196 0.0841915 -0.819567 -0.625321 -0.213271 0.750659 0
0.934388 0.208063 0.259473 -0.266008 -0.958878 0.0989539 0
-0.0132648 0.249378 0.754561 0.224153 -0.599985 -0.767967 0
-0.350305 0.281707 0.615557 0.549344 -0.486094 -0.679657 0
0.330406 0.492795 -0.22923 -0.640344 0.306419 0.704321 0
-0.591307 0.0625774 1.18073 0.862631 -0.500871 0.0706791 0
0.385894 0.136626 0.147352 0.945 0.151728 -0.289749 0
0.395607 -0.638874 0.125085 -0.315787 0.823434 -0.471419 0
-0.249987 0.044202 0.459116 0.931692 -0.346029 0.110518 0
0.456424 -0.456045 0.419908 0.421345 0.883933 0.202806 0
-0.309209 -0.00600596 0.739104 0.298118 -0.617404 0.727968 0
-0.258156 0.0845481 0.237331 0.222117 0.974971 -0.00981662 0
1.29066 0.0336706 0.357264 -0.543657 0.745076 0.386392 0
0.122253 0.203406 1.09199 -0.744473 0.641739 0.184201 0
-0.550489 0.097951 1.14614 -0.378216 -0.914633 0.142826 0
0.286489 -0.11216 -0.824898 -0.957974 0.284949 -0.0330136 0
0.0599089 0.441562 -0.778275 -0.834113 -0.551212 -0.0205228 0
-0.161947 -0.205761 -0.897954 0.947324 0.265182 0.179598 0
-0.219462 0.38442 1.25875 -0.970053 0.203194 0.133073 0
0.30426 0.124989 0.628312 0.075898 0.993876 0.0803115 0
0.449698 0.768294 0.340366 -0.149804 -0.881745 0.447307 0
-0.517922 -0.290983 1.14316 0.975883 0.0648352 -0.208441 0
0.636003 -1.09209 0.211482 0.763908 0.628943 0.144485 0
0.102442 0.426841 0.487004 -0.262691 -0.96467 -0.0201162 0
-0.676605 0.49983 0.274097 0.879662 0.474669 0.0297396 0
0.0694275 0.811477 -0.916067 -0.0168523 -0.926602 -0.375665 0
0.706718 -0.594409 -0.247026 -0.671927 -0.630611 -0.388386 0
0.827345 -0.858295 0.252649 -0.723702 -0.657687 0.209052 0
-0.952857 0.331726 -0.730655 0.432349 0.755277 0.492576 0
0.790435 -0.00810576 0.634247 -0.820926 -0.565845 0.0768047 0
-0.251815 -0.256914 -0.483578 0.109236 0.879888 -0.462455 0
-0.460858 -0.880495 0.271313 0.96563 -0.256247 -0.043546 0
-0.216512 0.392838 -0.0318997 -0.873736 -0.485253 -0.0333949 0
0.281336 0.222673 -0.616975 -0.191918 -0.354156 -0.915282 0
0.727407 -0.210025 -0.625857 0.831115 0.426089 -0.357345 0
0.194568 -0.256459 -0.60869 0.203143 -0.973335 0.106549 0
0.466207 0.379935 0.684867 0.851683 0.0774925 -0.518296 0
0.29639 0.808641 -0.576289 0.485857 -0.852864 -0.191223 0
0.643082 -0.139855 1.25468 0.352507 -0.598576 -0.719337 0
-0.317799 -0.0995923 -0.830782 0.613735 0.755631 0.228804 0
-0.192507 0.0559182 0.406622 0.336223 0.930952 -0.142417 0
0.310031 0.299121 0.553824 -0.567807 -0.464573 -0.679535 0
-0.576465 -0.457275 0.967425 -0.888279 0.351298 -0.295888 0
-0.129988 -0.153438 0.012631 -0.587557 -0.796546 0.142447 0
-0.165443 -0.216802 0.378898 0.482798 0.523274 -0.702204 0
-0.492365 -0.164892 -0.168812 -0.901765 -0.0614791 -0.427831 0
0.139399 -0.0571965 0.554419 0.9191 0.384023 0.0882108 0
-0.132384 0.214584 -0.415623 0.906011 -0.350928 0.236628 0
-0.406109 0.419631 0.731481 -0.372033 -0.928125 0.0132917 0
-0.493118 -0.7168 0.580596 -0.426965 0.805623 -0.410698 0
0.0909903 -0.0111557 0.430764 0.924996 -0.313736 -0.214367 0
0.833414 -0.211505 0.800401 0.373787 -0.897364 0.234566 0
-0.126775 0.627415 -0.471376 -0.707133 -0.643242 0.293604 0
0.2252 0.0480932 -0.00556209 -0.639961 -0.542991 -0.543701 0
-0.300871 0.20344 -0.0662619 0.405836 -0.18979 0.894023 0
-0.724736 0.01357 -0.810471 0.95175 -0.0784881 0.296668 0
0.16564 0.649097 0.991669 0.590865 0.510765 0.624498 0
0.197188 -0.189257 1.31814 0.251038 0.276647 -0.927602 0
1.08018 0.0433673 -0.105338 -0.327399 0.0630236 0.942782 0
0.0507307 0.438453 0.529666 -0.00316294 -0.782795 -0.622272 0
0.22153 -0.267932 0.83534 0.545406 0.76231 -0.348448 0
-0.296273 0.190303 -0.896154 0.8165 0.367878 0.444964 0
-0.23667 0.119163 -0.603922 0.674732 -0.699503 0.235441 0
-0.917069 -0.420947 -0.0654667 -0.930903 -0.213806 0.296154 0
0.451488 -0.854818 -0.397273 -0.828711 -0.559623 0.00780087 0
0.0921622 -0.695429 0.905413 -0.251163 0.17851 0.951342 0
-0.208422 -0.616877 1.30098 0.377233 0.922939 -0.0766787 0
-0.353382 0.391953 -0.469491 -0.598651 -0.723258 0.344259 0
1.30627 -0.0954717 0.119506 -0.250084 0.857553 -0.449512 0
-0.231937 -0.238596 0.629686 0.651029 0.382134 -0.655847 0
-1.12385 0.537143 -0.329312 0.804805 0.38271 -0.453675 0
0.110241 0.210604 1.29036 0.813047 -0.217024 -0.540237 0
-0.906798 -0.0976395 -0.0918944 -0.584052 0.0457611 -0.810425 0
0.0388629 0.167226 0.205794 0.559374 0.200122 0.804396 0
-0.28551 0.0318759 -0.106325 0.48405 -0.587798 -0.64822 0
0.570367 -1.10627 -0.00851019 0.821237 0.56874 0.0458826 0
0.168863 0.324424 0.171144 -0.136538 -0.72027 0.680124 0
0.0422799 0.113487 -0.201814 0.618138 0.506522 0.601117 0
-0.409658 0.730369 0.321606 -0.884079 -0.350346 -0.309292 0
0.227331 -0.59342 1.09003 0.15582 -0.278323 -0.947764 0
-0.0914152 -0.130836 -0.438841 0.702725 -0.350446 0.619165 0
0.293314 0.315297 0.222062 -0.106886 0.143456 -0.983868 0
-0.777437 -0.442762 0.332928 -0.560461 -0.658424 -0.502356 0
-0.148471 0.906642 0.883285 -0.911341 -0.411462 -0.0125029 0
0.71283 -0.25419 0.817803 -0.236119 -0.971706 0.00590208 0
1.1911 -0.249583 -0.0953601 -0.449581 -0.778429 -0.438093 0
-0.360509 0.232623 0.149844 -0.923037 0.1537 0.352675 0
-0.0441479 0.419996 0.572447 0.270018 0.664942 -0.696378 0
0.170701 0.222522 0.705619 -0.0962494 0.323118 0.941451 0
-0.359644 -0.0504058 -0.0908716 0.812161 0.192008 0.550933 0
0.869844 0.646438 0.615574 0.0494624 -0.855504 -0.515429 0
-0.29887 -0.27919 -0.356741 0.479861 0.307222 0.821795 0
-0.0600908 0.15278 0.93917 0.20009 0.889483 -0.410833 0
-0.88723 0.670906 0.828911 0.890142 -0.127229 0.437561 0
-0.650725 0.160221 0.582413 0.180799 -0.348746 0.919613 0
0.621542 -0.0160812 -0.829219 -0.842681 0.535055 0.0600375 0
-0.299035 0.580631 -0.311656 0.503926 0.196599 -0.841075 0
0.230905 -0.199776 -0.408841 0.0888191 0.960701 -0.26299 0
-0.21986 -0.46501 0.222708 -0.505735 -0.798544 0.326435 0
0.337268 -0.673929 0.672571 -0.633626 -0.2453 0.733721 0
0.650846 0.618877 0.722079 -0.805987 -0.145294 0.573824 0
-0.238069 0.237564 -0.893258 -0.968006 -0.0452095 -0.246819 0
-0.370742 -0.756209 -0.58929 -0.686456 0.680035 -0.257548 0
0.386522 -0.0866275 -0.889555 -0.648311 -0.749934 0.1315 0
-0.233239 -0.120278 0.355186 -0.100101 0.659686 0.744845 0
0.766289 -0.655027 0.398314 -0.382449 0.555408 0.738414 0
0.376998 -0.142967 1.19983 -0.832331 -0.537641 0.134789 0
-0.41232 -0.300037 -0.33795 0.114208 0.463903 -0.878493 0
-0.768631 -0.353852 -0.771184 -0.526077 0.844003 -0.104413 0
-0.298986 -0.0963625 0.120679 -0.167024 -0.891725 -0.42063 0
0.600548 0.77063 0.307189 0.726927 0.660487 -0.187974 0
0.307742 0.960649 0.616831 0.966462 -0.114555 -0.229844 0
0.190284 -0.169389 0.0399044 0.222799 -0.170402 -0.959856 0
0.695696 -0.0274931 -0.473892 0.646661 0.126183 -0.752269 0
-0.11345 -0.285647 0.56865 0.828741 0.546953 -0.118451 0
-0.0564637 -0.0809714 -0.559861 0.186236 -0.982369 -0.0163684 0
0.756455 0.405989 0.485947 0.5535 0.167245 0.815884 0
0.414774 -0.223254 -0.988051 0.647102 0.71858 -0.254758 0
-0.864899 0.630896 0.625939 0.894944 -0.122223 0.429112 0
-0.0291382 -0.27216 -0.370005 0.927678 -0.373293 0.00810671 0
0.675649 -0.187204 -0.640224 0.584792 0.440436 0.681201 0
0.925549 -0.366285 0.750578 0.00637701 0.99362 -0.112597 0
-0.159593 -1.07426 0.224926 -0.931376 -0.247509 0.266979 0
0.519321 0.453126 -0.594879 -0.400034 0.783096 -0.476165 0
-0.0443131 -0.58027 0.148091 0.984532 0.0613847 0.164098 0
-0.419868 0.845499 0.982061 0.630069 -0.0809304 -0.77231 0
-0.235277 0.91306 -0.0405396 -0.204402 -0.508719 -0.836316 0
0.362167 0.360816 -0.88945 -0.290729 0.749893 -0.594254 0
-0.431866 0.803422 -0.448318 0.935577 0.338821 -0.0994803 0
0.46076 0.831274 0.562048 -0.810587 0.570697 0.131353 0
0.0756591 0.470666 -0.393208 0.977054 0.176604 0.119064 0
0.333006 -0.229769 0.816517 -0.981705 -0.145658 -0.122633 0
0.886324 -0.682215 0.12705 0.0560939 0.894326 0.443885 0
0.392421 -0.135017 -0.994238 0.594872 -0.782524 -0.183802 0
0.323238 -0.640793 -0.195031 0.875448 -0.47546 0.0867683 0
-0.186268 -0.131372 0.364224 0.694355 0.239231 0.678705 0
-0.0430779 -0.93834 0.0560226 0.950481 -0.308508 0.0375305 0
-0.31504 -0.269694 1.08327 0.408175 -0.907313 -0.100878 0
-0.22048 0.17871 0.373365 0.990493 -0.0371827 0.132443 0
-0.240428 -0.202082 -0.117704 0.080071 0.986708 0.141406 0
-0.111298 -0.388858 1.31291 0.192849 0.103319 -0.975774 0
-0.879895 0.192402 0.182808 0.0777165 -0.832053 0.549224 0
-0.447435 0.34648 -0.542812 0.840927 0.52711 0.122461 0
0.289179 -0.201861 -0.175391 -0.279334 -0.957052 -0.0776188 0
0.709194 -0.348589 0.776749 -0.19838 0.835941 0.511711 0
0.325834 0.125456 0.122465 -0.916053 0.224027 -0.332653 0
-0.830003 -0.728272 0.511831 0.579111 -0.805608 0.125008 0
0.929836 -0.320161 0.583485 0.328043 0.00122799 0.944662 0
-0.731801 -0.949477 -0.40406 0.817303 0.52556 -0.236226 0
0.307953 -0.455359 1.17957 -0.798952 -0.453262 0.395258 0
0.396902 0.382988 1.02625 0.249701 0.622899 0.741381 0
0.256499 -0.839558 0.750984 0.317422 -0.437117 -0.84153 0
0.0844342 0.658625 -0.337033 0.0993592 -0.537164 -0.837605 0
-0.65288 -0.964744 0.428491 -0.0597961 0.452697 0.889657 0
-0.404973 -0.108793 0.170872 0.675408 -0.0201397 -0.737169 0
0.156723 0.325789 -0.0832249 -0.996274 0.01267 -0.0853092 0
-0.424121 -0.652836 0.208192 -0.471207 0.847752 0.243478 0
0.169091 0.0591967 -0.867442 0.015645 -0.80096 -0.598513 0
0.749863 0.316174 -0.474901 0.970758 -0.215717 -0.105332 0
0.0479357 -0.214503 0.080917 -0.231028 -0.437494 0.869037 0
-0.615063 0.206249 1.21813 -0.211138 -0.769351 -0.602926 0
-0.327031 0.647776 -0.811786 0.823024 -0.137902 0.551013 0
-0.369381 -0.141354 0.64744 0.0538849 -0.998521 -0.00719065 0
0.178054 0.235952 -1.16231 -0.458301 -0.811874 0.361693 0
-0.15193 0.0177921 -1.10352 -0.209778 0.107676 0.971802 0
0.774331 0.0119162 0.000934416 -0.336117 -0.300242 -0.892682 0
0.3214 -0.277526 0.494946 -0.839804 -0.200386 0.504553 0
1.04638 0.0189744 0.0644101 -0.518985 0.640905 -0.565593 0
0.276746 0.0309649 0.35852 -0.955367 -0.293778 0.0311155 0
1.2472 -0.123183 -0.252219 -0.203033 -0.945376 0.255033 0
-0.0820565 0.189173 1.10016 0.579702 -0.271418 0.768296 0
-0.0283156 0.325619 0.373057 0.522681 -0.825851 0.211599 0
0.792366 -0.0796436 0.949739 -0.374728 -0.847513 -0.3759 0
0.422908 0.576219 -0.071606 -0.435452 -0.0384773 -0.899389 0
-0.583186 -0.133762 0.517289 0.654171 -0.480744 -0.583905 0
0.867063 -0.294228 0.408858 0.120413 -0.831536 0.542263 0
-0.11242 -0.242248 0.578985 0.249798 0.462545 -0.850678 0
-0.597191 -0.554878 0.271946 0.185722 -0.452855 -0.872026 0
0.280637 -0.364568 -0.615483 0.24953 0.211393 -0.945012 0
0.0954667 -0.1976 1.20619 -0.770508 -0.634891 -0.0568401 0
-0.288096 -0.206702 1.20165 0.806052 0.548198 0.223068 0
0.320504 0.017163 0.0929287 0.830822 0.540148 0.134069 0
-0.11573 -1.16401 -0.10729 -0.537482 -0.536257 -0.6508 0
-0.140331 -0.0230416 -0.153266 -0.924563 -0.213241 0.315772 0
-1.07648 0.587498 0.622238 -0.0472753 -0.656138 -0.753159 0
-0.314095 0.424929 -0.755226 0.841664 0.480571 -0.24628 0
-0.0276789 -0.17122 -0.0744964 0.776493 0.0404564 0.628826 0
-0.311136 0.121466 -0.569448 0.844054 0.499327 -0.195564 0
-0.468595 0.00818161 0.70319 0.228777 0.954085 0.193347 0
-0.576502 0.0119939 -0.816896 -0.336673 0.895735 -0.290362 0
-0.329023 -0.12269 -0.0682459 0.565628 -0.766157 0.305071 0
0.135281 0.829107 -0.0422967 0.114451 0.400354 -0.909185 0
0.0295084 -0.676146 0.0294983 0.960319 0.109943 -0.25632 0
0.75787 -0.159725 0.790441 0.103249 -0.265937 -0.958445 0
0.232448 0.106713 0.33768 0.49727 -0.306101 0.811803 0
-1.02445 0.324597 0.115522 0.618541 -0.781828 0.0784396 0
0.530348 -1.01528 0.0421927 -0.917807 -0.353167 0.181393 0
0.397145 -0.32196 0.542662 0.99873 0.0447167 -0.0232283 0
0.152286 0.892493 -0.458166 0.780633 0.42788 -0.455556 0
-0.70389 0.032799 0.428575 0.575665 0.257666 0.776027 0
0.760625 -0.683447 0.0957259 -0.0510116 -0.53399 0.843951 0
0.727712 -0.345274 0.421958 0.706943 -0.475785 0.523317 0
0.177698 0.352904 0.544354 -0.888019 -0.0253545 0.459107 0
0.810313 0.211521 -0.150166 0.189071 0.258373 0.947362 0
-1.11983 0.214364 0.376864 0.525273 -0.694759 0.491322 0
-0.711294 0.264677 -0.597511 -0.947664 0.198702 0.249901 0
-0.0470871 0.995287 0.440758 -0.365989 0.656512 0.659578 0
-0.742109 0.173968 0.815095 -0.279872 -0.73995 -0.611674 0
-0.250149 0.225108 -0.254233 -0.328235 0.78495 -0.525466 0
-0.401779 0.165295 0.0668426 0.949243 0.314443 0.00790014 0
-0.209253 -0.318226 -0.402164 -0.3059 0.952054 -0.00433542 0
0.0047926 -0.380553 0.611816 0.697675 -0.533844 0.477765 0
0.318372 0.193797 0.621486 0.195321 -0.0854388 -0.977011 0
-1.03334 -0.363542 0.402618 0.595843 -0.738599 -0.315345 0
0.188918 0.173836 -0.223382 0.324462 -0.304679 0.895486 0
0.686285 -0.798881 0.64543 0.751866 0.606172 -0.259333 0
0.141406 -0.231651 0.0675184 0.995233 0.0698152 -0.0680935 0
-0.210687 0.427951 0.248277 0.583771 0.0100432 -0.811856 0
-0.0696373 -0.0715812 0.518347 -0.995963 -0.048559 -0.075491 0
-0.591001 0.317788 -0.766516 -0.334302 -0.940667 -0.0582065 0
-0.481101 0.572473 0.119193 0.457687 0.480451 -0.748124 0
-0.106267 0.206406 0.948646 0.32916 -0.64101 0.693368 0
-0.25117 -0.207118 -1.04128 0.450308 0.366356 0.814251 0
-0.913935 0.317712 -0.14601 0.608059 0.78767 0.099199 0
-0.848295 0.055206 0.721756 0.233353 0.945623 0.226591 0
0.0583874 -0.162103 1.07208 -0.383985 -0.00317492 0.923334 0
-0.766361 0.293866 0.712201 0.309982 -0.935979 0.166896 0
0.268695 0.280908 1.09275 0.111032 -0.993725 0.0134871 0
-0.753292 0.614576 -0.195745 0.689878 0.505504 -0.518202 0
0.661789 -0.603531 0.645012 0.880146 -0.314049 0.355972 0
-0.0185022 0.447731 -0.749547 -0.0412696 0.531664 -0.845949 0
0.173034 -0.998819 -0.20573 0.525403 -0.798896 0.292774 0
-0.117833 -0.560457 0.00055118 -0.32141 -0.518982 0.792056 0
0.256997 0.289401 -0.0112562 0.795405 0.604915 0.0375316 0
-0.1324 0.254273 -0.252332 -0.735557 -0.541103 -0.407632 0
0.917321 0.328992 0.671209 -0.0247053 -0.340059 -0.94008 0
0.180643 0.228578 1.21942 -0.746834 0.411935 -0.522062 0
-0.699568 -0.507099 0.800557 0.523621 -0.851797 0.0162125 0
-0.203703 0.182209 -0.0545932 0.963904 0.231612 -0.131322 0
0.0819396 0.31135 -0.271026 0.445483 -0.227428 -0.865922 0
0.222615 -0.656051 -0.610757 0.74128 0.0613572 -0.668385 0
0.88451 -0.293319 -0.482962 0.638411 0.769687 -0.0037804 0
0.0463359 -0.545627 0.07954 0.889516 0.456873 0.00532012 0
-0.138545 0.557121 0.999313 -0.596992 -0.692325 0.405324 0
-0.598731 -0.43567 0.84851 -0.78707 0.465079 -0.405244 0
0.331733 -0.234133 0.631913 0.904105 -0.0960472 -0.416375 0
-0.352459 0.142045 1.10683 0.137639 0.862234 0.48745 0
0.439101 -0.0178422 0.864596 0.95096 -0.088285 0.296448 0
0.200716 -0.248476 0.247467 0.808658 0.587096 0.037293 0
-1.06309 0.38364 -0.50897 -0.470087 -0.651414 0.595549 0
-0.0373645 0.0825992 -0.192926 0.332445 0.940015 0.0764987 0
0.0996629 0.371 -0.0953339 0.124512 -0.352453 -0.927509 0
-0.0590315 0.30613 0.151102 0.283241 -0.412772 -0.865675 0
-0.265658 0.123307 -0.668609 -0.955458 0.129481 0.265207 0
-0.537622 0.300092 1.19771 -0.0829085 0.991569 0.099582 0
0.912055 0.0346177 -0.458153 0.500497 0.441704 -0.744581 0
0.226212 0.122865 -0.544218 -0.903743 0.0576063 -0.424182 0
-0.418114 0.0143884 0.31552 0.237512 -0.919479 0.313283 0
0.213531 0.557593 0.320573 -0.917741 -0.378233 -0.121208 0
-0.258966 -0.535404 -0.467049 0.810563 -0.582401 0.0616176 0
-0.211334 -0.134985 -0.987363 0.788764 0.498705 -0.359367 0
-0.255647 -0.0662942 0.17289 -0.60737 -0.79405 -0.0242017 0
0.511326 -0.0232479 0.579441 -0.407995 -0.912942 0.0087771 0
0.233931 0.43009 0.68224 -0.529549 0.720708 -0.447391 0
0.474483 0.0644159 -0.890956 -0.490571 -0.863123 0.119832 0
0.470921 0.266994 -0.863116 0.40233 -0.709003 0.579176 0
-0.158923 0.127639 -0.982759 0.441082 -0.0371447 -0.896698 0
0.272593 -1.10603 0.719238 -0.2857 0.929404 -0.233632 0
0.257342 0.193668 0.710933 -0.348406 0.508792 -0.787238 0
-0.239656 -0.19232 0.355136 0.615629 0.048929 -0.786516 0
-0.0207615 0.302057 0.989928 0.816915 0.531819 -0.223202 0
-0.0925682 0.510695 0.0596351 -0.124411 -0.810748 -0.572023 0
-0.167182 0.191137 -0.221531 0.748388 -0.627834 0.21387 0
0.65946 -0.19296 0.786897 -0.66263 -0.710916 -0.235624 0
-0.962442 0.604757 0.394598 0.301822 -0.952941 -0.0284138 0
0.244447 0.680408 0.21189 -0.495037 -0.696775 0.519079 0
-0.0565321 -0.354349 0.900109 0.0402983 0.922547 -0.383775 0
1.12895 0.0662957 -0.412088 -0.155518 0.175728 -0.972077 0
-0.0528014 0.0911455 -0.25971 -0.919261 0.393215 -0.0184768 0
0.0359323 -0.468804 -0.307782 -0.621531 0.778471 0.0876492 0
-0.183866 0.25927 0.737006 -0.97789 -0.204644 -0.0430282 0
-0.593795 0.759021 -0.589475 0.889089 0.285578 -0.357723 0
-0.248086 0.595275 -0.279172 0.0403588 -0.0418203 0.99831 0
0.217066 -0.542708 0.845431 0.355881 0.927405 -0.115187 0
-0.164208 -0.169929 0.224605 -0.572643 0.788197 0.225443 0
-0.255592 -0.213342 0.435827 -0.118165 0.78652 -0.606154 0
-0.181001 -0.575544 -0.333144 0.0361384 0.441982 0.896296 0
0.629653 -0.541481 0.766024 0.598321 0.800617 -0.0320074 0
-0.501353 0.201387 1.12646 0.90838 0.392203 -0.144992 0
-0.0753169 -0.403589 -0.112696 -0.391851 0.666035 -0.634704 0
0.112182 -0.2325 1.17908 0.481505 -0.383356 0.788157 0
0.521872 -0.583917 -0.439384 0.765428 -0.626605 -0.146584 0
-0.340574 -0.906846 0.709833 -0.890227 0.268827 -0.367734 0
-0.156105 0.0201281 1.011 -0.427245 0.0899769 -0.899648 0
-0.260682 0.0345131 -0.905052 0.970313 -0.241468 -0.0136529 0
-0.0200118 0.212689 0.000101753 -0.578962 0.353791 -0.734599 0
-0.181599 0.829131 0.401405 0.849328 -0.353768 0.391778 0
-0.259195 -0.106665 -0.272259 0.0211206 -0.288125 0.95736 0
-0.851808 -0.346467 0.797458 -0.389357 0.864411 0.31811 0
0.205259 0.194793 -0.957123 -0.393614 -0.6657 -0.633964 0
0.289243 -0.487441 0.54241 0.171185 -0.568363 0.804773 0
0.249875 0.0730934 1.04494 -0.902707 -0.420444 0.0913647 0
-0.279612 0.0491938 0.333829 -0.468274 -0.694065 -0.546803 0
-0.213239 -0.161878 -0.374716 -0.786307 0.480569 -0.388296 0
-0.230368 0.0405223 -0.880315 -0.426622 -0.815942 0.39017 0
0.240091 0.157766 -0.0936514 -0.728057 -0.645114 0.231864 0
0.419958 0.330155 0.677125 0.680326 0.225439 -0.697376 0
0.84097 -0.767584 0.786552 0.275756 0.899493 0.338925 0
0.540964 -0.0878485 0.869121 -0.856887 -0.515503 -0.00141622 0
0.197469 0.0824899 -0.543784 -0.324589 0.90076 -0.288571 0
-0.923143 0.679254 0.137976 -0.513773 0.773912 -0.370266 0
-0.25702 0.0957715 1.15029 -0.790352 -0.599077 0.128256 0
-0.143517 0.180274 0.977874 -0.128404 0.771691 -0.6229 0
-0.134737 -0.248565 0.889249 0.471181 0.485506 0.736392 0
0.173435 -0.647163 -1.0173 0.47818 0.868437 0.130999 0
-0.00159107 -0.472863 -0.710408 -0.743673 0.666132 0.0567261 0
-0.519256 0.0708896 0.915422 -0.351868 0.822097 0.447599 0
0.326935 -0.478572 -0.575422 -0.241359 0.112901 -0.963846 0
-0.0673734 -0.185663 -1.00326 0.0447466 -0.625667 0.778806 0
0.0480997 -0.402898 0.63891 0.523216 0.835931 0.165724 0
0.0290551 0.0661701 -0.184677 0.472086 0.881528 0.00661684 0
-0.168569 -0.178227 1.18871 0.522695 0.676543 -0.518728 0
-0.238478 0.160561 1.14317 -0.235849 -0.958358 0.161012 0
-0.343825 0.258693 0.655325 0.0134096 -0.998439 -0.0542249 0
0.0843085 -0.35315 -0.412122 -0.946467 0.274682 0.169559 0
-0.152025 0.152943 0.265224 -0.370282 -0.801434 -0.469676 0
-0.172263 -0.711917 -0.5377 0.918052 -0.27768 -0.282974 0
0.325319 0.651325 0.260973 -0.5034 0.660979 -0.556503 0
1.23168 0.0400869 0.537133 0.060036 0.88005 -0.471071 0
-0.687044 0.211514 -0.440708 -0.349795 0.869061 0.349823 0
0.531158 0.788516 -0.58349 0.868749 -0.495252 -0.00049552 0
-0.254674 -0.761534 0.417086 0.381562 0.472158 -0.794655 0
-0.0707734 -0.0180593 0.392573 -0.996025 -0.0772037 0.0444225 0
-0.700224 -0.404822 1.06131 -0.447339 0.891912 -0.0661826 0
-0.171678 -0.504322 0.103835 0.0575607 0.702019 -0.709829 0
0.498833 0.634619 0.984383 0.377898 -0.81663 -0.436243 0
0.150314 -0.146752 1.16389 -0.630028 0.023411 0.77622 0
0.220933 0.067606 0.889547 -0.85668 0.371696 0.35769 0
0.126362 0.403767 -0.868903 0.519258 0.162009 0.839121 0
0.398834 -0.162082 0.0853438 0.859591 0.457015 0.228561 0
-0.0107333 -0.317679 -0.272224 -0.993354 -0.107284 0.0416919 0
1.13508 -0.181406 0.466429 -0.794645 0.562045 0.229447 0
0.172584 0.355205 0.801597 0.525693 0.737958 -0.423161 0
0.229755 -0.00415759 -0.412558 -0.219387 0.597577 0.771214 0
0.270062 0.759991 -0.205184 -0.883647 0.320742 -0.341018 0
0.181943 0.284778 1.07664 -0.919198 0.389057 -0.0609134 0
0.1376 -0.61373 0.26303 0.984029 0.148987 0.0974135 0
0.356199 -0.781832 -0.585884 -0.527505 -0.7903 -0.311713 0
0.400141 0.23359 0.397402 -0.839817 -0.132677 0.526407 0
0.490356 -0.00943876 -0.0359593 -0.677415 -0.4607 0.573467 0
0.216626 -0.216105 -0.18847 -0.369981 0.661509 0.65232 0
0.0174304 0.225273 -0.23227 -0.892256 -0.426354 -0.148666 0
0.585158 -0.191296 -0.251247 -0.283256 -0.958951 -0.013392 0
-0.4663 -0.155595 -0.267944 -0.394409 -0.557295 0.73066 0
1.00421 -0.61503 0.0947894 -0.929872 -0.272062 -0.247628 0
0.511963 -0.806023 -0.730172 -0.878469 0.0130681 0.47762 0
-0.539169 0.0814493 0.781218 0.690734 -0.568675 0.446649 0
0.462697 0.0771621 -0.199982 0.804385 0.552055 0.219545 0
-0.111224 -0.169927 -0.485847 -0.00128347 -0.38315 0.923685 0
0.343053 -0.106535 -0.338817 0.533555 0.799205 0.27675 0
-0.871654 0.185034 -0.377868 -0.786343 0.448736 0.424619 0
-0.377618 0.200217 1.37745 -0.440172 -0.854878 -0.27465 0
0.188839 -0.967528 -0.69844 -0.110342 -0.650793 0.751194 0
0.180657 -0.504476 0.468629 -0.960368 -0.00950382 -0.278572 0
0.0664182 -0.382796 0.760586 0.505195 0.781521 -0.366064 0
1.01764 -0.585993 0.0400591 0.390421 0.920633 0.0022832 0
0.0489368 -0.278839 0.145203 0.54106 0.804267 -0.245782 0
0.114047 0.42118 0.383966 -0.495816 -0.695763 0.519692 0
0.325833 1.07823 0.533093 0.894107 -0.437719 -0.0947317 0
0.768872 0.0212627 0.726192 0.379789 -0.924888 -0.0185234 0
-0.241171 0.264448 0.143608 -0.0798027 -0.226828 -0.97066 0
0.169113 -0.350219 0.119913 -0.672316 -0.214528 -0.708497 0
0.805208 -0.0609027 1.07185 0.634984 -0.769708 -0.065918 0
0.196443 -0.0115844 -0.968222 -0.160095 0.340122 -0.926653 0
0.172085 -0.0184832 -0.177975 -0.0375581 0.589255 0.807074 0
0.197981 0.534432 0.232817 0.125 0.209635 -0.969757 0
0.187922 0.323314 -0.274162 -0.398831 -0.562268 0.724423 0
-0.910581 -0.476137 0.373401 0.662893 -0.748697 -0.00500402 0
0.134824 -0.995124 0.0183625 -0.399662 0.807829 0.433223 0
0.25203 0.880229 -0.347616 0.142484 0.621591 -0.770275 0
0.244852 0.148873 -0.323411 0.689446 0.354974 -0.631393 0
0.307472 0.224847 0.506443 -0.790529 0.326136 0.518362 0
0.357753 0.119641 0.809433 -0.48552 -0.178271 0.855856 0
-0.587149 0.28798 0.203204 0.435269 0.847828 -0.302866 0
0.148256 0.791051 -0.0327445 0.317302 -0.233251 -0.919192 0
-0.31407 0.193303 -1.14036 -0.421913 0.410004 0.808632 0
-1.14933 -0.226483 0.103905 0.888173 -0.157973 -0.431502 0
0.10503 0.281419 -0.0912902 -0.842126 0.517801 -0.150683 0
0.90073 -0.354931 0.516986 0.00625853 0.451079 0.892462 0
-0.0596506 1.23972 0.473628 -0.0549546 -0.941422 -0.332723 0
-0.202009 0.587206 0.617624 0.120161 0.844133 0.522494 0
0.233937 -0.118414 -0.762273 0.489542 0.336956 -0.804245 0
0.183816 -1.2252 0.00692277 -0.990655 -0.0881426 0.104087 0
-1.07701 -0.478701 -0.12896 -0.139726 0.739977 -0.657959 0
-0.391337 0.237971 -0.865654 0.238667 0.857899 -0.455025 0
-0.0280387 -0.252313 0.0398375 -0.951504 -0.259337 -0.165481 0
-0.00357437 -0.321279 -0.109926 0.980372 0.127076 0.150742 0
0.124572 -0.844882 0.130386 -0.610968 0.590432 -0.527359 0
-0.0884707 -0.223326 -0.158526 0.863532 0.499752 0.0675343 0
