# .PCD v0.7 - Point Cloud Data file format
VERSION 0.7
FIELDS x y z normal_x normal_y normal_z curvature
SIZE 4 4 4 4 4 4 4
TYPE F F F F F F F
COUNT 1 1 1 1 1 1 1
WIDTH 785
HEIGHT 1
VIEWPOINT 0 0 0 1 0 0 0
POINTS 785
DATA ascii
0.10009969 0.71920836 0.38114557 -0.88192242 -0.47139457 0 0
-0.12932163 0.72849596 0.38129127 -0.77300978 -0.63439417 0 0
-0.13368161 0.74645162 0.38145983 -0.99518472 0.098017663 0 0
-0.13207684 0.7528581 0.38138071 -0.95693982 0.29028636 0 0
0.10408993 0.43011206 0.38208482 -0.29028717 -0.95693958 0 0
0.13446005 0.45133212 0.38263878 0.99518472 -0.098017074 0 0
-0.11041118 0.56162083 0.38205799 -0.29028174 -0.95694125 0 0
-0.11633106 0.56505704 0.38270408 -0.63439268 -0.77301097 0 0
0.0022025187 0.61179256 0.38265595 0.098017074 -0.99518472 0 0
0.14850035 0.73160994 0.38249218 0.99518472 0.098017663 0 0
-0.083370887 0.74653363 0.38243687 0.99518472 0.098017663 0 0
-0.12479921 0.76258582 0.38281131 -0.6343919 0.77301157 0 0
0.10886606 0.42958525 0.38374022 -0.098017074 -0.99518472 0 0
0.13466819 0.45660478 0.38350138 0.99518472 0.098017074 0 0
0.13365401 0.46223906 0.38385656 0.95693934 0.290288 0 0
0.0017172724 0.50383252 0.38371944 0.47140169 -0.88191867 0 0
0.015567865 0.52004576 0.3835161 0.9569397 -0.29028693 0 0
-0.0055239643 0.55210638 0.38342243 0.098017074 0.99518472 0 0
-0.10302847 0.55997801 0.38360479 -0.098017074 -0.99518472 0 0
0.0051433579 0.61208218 0.38379052 0.098017074 -0.99518472 0 0
-0.021149483 0.64806885 0.38342509 -0.88192242 0.47139457 0 0
0.12816226 0.70481586 0.38343385 0.098017223 -0.99518472 0 0
0.14582515 0.71835279 0.3832373 0.88192242 -0.47139457 0 0
0.14730372 0.73769867 0.38320175 0.95693982 0.29028636 0 0
0.1464332 0.74013478 0.38361192 0.88192242 0.47139457 0 0
-0.087249361 0.75713909 0.38367981 0.88192242 0.47139457 0 0
0.12876266 0.43871397 0.3840557 0.77301216 -0.63439119 0 0
-0.033400975 0.5333668 0.38448891 -0.9569397 0.29028693 0 0
-0.023796327 0.54748702 0.3846873 -0.6343919 0.77301157 0 0
0.0040192869 0.54883122 0.38435215 0.47140169 0.88191867 0 0
-0.12631395 0.5867008 0.38446182 -0.99518478 0.098016493 0 0
-0.077296674 0.59459776 0.38448635 0.9569397 0.29028693 0 0
-0.10305859 0.61054206 0.38444549 -0.098017074 0.99518472 0 0
-0.095376775 0.61006987 0.38409564 0.29028174 0.95694125 0 0
-0.023063295 0.64257854 0.38464302 -0.9569397 0.29028693 0 0
0.024526075 0.64857131 0.38497731 0.88192242 0.47139457 0 0
-0.014458096 0.65669167 0.3842026 -0.63439268 0.77301097 0 0
0.1174351 0.70505375 0.38428316 -0.29028174 -0.95694125 0 0
-0.11163138 0.71795249 0.38465053 -0.098017074 -0.99518472 0 0
-0.10212268 0.71856898 0.38488463 0.29028174 -0.95694125 0 0
-0.094685785 0.72176886 0.38429773 0.47140169 -0.88191867 0 0
-0.13366151 0.73960954 0.38489777 -0.99518472 -0.098017663 0 0
0.13373452 0.75293648 0.38401693 0.47140169 0.88191867 0 0
-0.089860924 0.76037455 0.38446534 0.773009 0.634395 0 0
0.13359472 0.46243441 0.38560444 0.95693934 0.290288 0 0
0.11270314 0.48017991 0.38582382 0.098017074 0.99518472 0 0
-0.030613504 0.51387072 0.38500324 -0.88192242 -0.47139457 0 0
-0.079694882 0.57125825 0.38582236 0.88192242 -0.47139457 0 0
-0.075723559 0.58770263 0.38575584 0.99518478 0.098016493 0 0
0.0022479424 0.61179698 0.38530403 0.098017074 -0.99518472 0 0
0.11939376 0.70470023 0.38500905 -0.098017074 -0.99518472 0 0
0.14189386 0.71262115 0.38559449 0.77300978 -0.63439417 0 0
-0.088118955 0.72801316 0.38538507 0.773009 -0.634395 0 0
0.097832173 0.73110569 0.38570523 -0.99518472 0.098017663 0 0
-0.08311028 0.74237752 0.38560066 0.99518472 -0.098017663 0 0
0.083900578 0.45452356 0.38651067 -0.99518472 -0.098017074 0 0
0.12997691 0.46985665 0.38648674 0.77301216 0.63439119 0 0
0.11223499 0.48022598 0.38697031 0.098017074 0.99518472 0 0
-0.11444456 0.56370467 0.3861261 -0.47140169 -0.88191867 0 0
-0.084941782 0.56560367 0.38671827 0.63439268 -0.77301097 0 0
-0.12213624 0.57107252 0.38643858 -0.77300835 -0.63439596 0 0
-0.075796962 0.58844793 0.38683793 0.99518478 0.098016493 0 0
-0.0045738486 0.61267686 0.38646877 -0.29028174 -0.95694125 0 0
0.013868383 0.61492062 0.3869321 0.47140169 -0.88191867 0 0
0.14103532 0.71164548 0.38664642 0.63439417 -0.77300978 0 0
-0.11625311 0.71897286 0.38628894 -0.29028174 -0.95694125 0 0
-0.088660404 0.72735345 0.38663143 0.773009 -0.634395 0 0
-0.087550633 0.72870564 0.38667378 0.773009 -0.634395 0 0
-0.13278811 0.73575175 0.38662136 -0.95693982 -0.29028636 0 0
-0.083440959 0.74724507 0.386987 0.99518472 0.098017663 0 0
-0.11124448 0.76835072 0.3863396 -0.098017074 0.99518472 0 0
0.10807258 0.42966342 0.38745895 -0.098017074 -0.99518472 0 0
0.086949065 0.46694446 0.38769203 -0.88192111 0.47139704 0 0
0.0055262996 0.5059287 0.38720942 0.6343919 -0.77301157 0 0
-0.085286856 0.60520256 0.38750407 0.63439268 0.77301097 0 0
-0.099746265 0.61062735 0.3874011 0.098017074 0.99518472 0 0
-0.0085240118 0.66047049 0.38750756 -0.47140169 0.88191867 0 0
0.12160006 0.70448297 0.38770208 -0.098017074 -0.99518472 0 0
-0.11955366 0.72026956 0.38759691 -0.47140169 -0.88191867 0 0
-0.083406344 0.74689364 0.38792422 0.99518472 0.098017663 0 0
-0.1313388 0.75425082 0.38796702 -0.88192242 0.47139457 0 0
0.10122079 0.4790678 0.38899139 -0.29028717 0.95693958 0 0
0.10234806 0.47940975 0.38881683 -0.29028717 0.95693958 0 0
-0.015409533 0.55146015 0.38805038 -0.29028174 0.95694125 0 0
-0.11683505 0.5654707 0.38890916 -0.63439268 -0.77301097 0 0
-0.0025969553 0.61219043 0.38831234 -0.098017074 -0.99518472 0 0
0.023252908 0.62352961 0.38899854 0.88192242 -0.47139457 0 0
-0.023469718 0.63921106 0.38805899 -0.99518478 0.098016493 0 0
0.013298124 0.65986705 0.3885234 0.47140169 0.88191867 0 0
-0.11838939 0.71964723 0.38827071 -0.47140169 -0.88191867 0 0
-0.095132165 0.72153026 0.38843226 0.47140169 -0.88191867 0 0
-0.12389518 0.72293746 0.38841093 -0.6343919 -0.77301157 0 0
-0.12939401 0.75768107 0.38819924 -0.77300978 0.63439417 0 0
0.083893679 0.45459366 0.38938648 -0.99518472 -0.098017074 0 0
-0.014960019 0.50229764 0.38923466 -0.29028174 -0.95694125 0 0
-0.028675988 0.51113218 0.38957262 -0.773009 -0.634395 0 0
-0.03210824 0.53722697 0.38934308 -0.88192242 0.47139457 0 0
-0.12389673 0.59617269 0.38935521 -0.88192242 0.47139457 0 0
-0.098157682 0.61047089 0.38991362 0.098017074 0.99518472 0 0
-0.10107844 0.71888578 0.38961062 0.29028174 -0.95694125 0 0
0.0979065 0.72776473 0.3896476 -0.99518472 -0.098017663 0 0
-0.083229288 0.7411691 0.38956466 0.99518472 -0.098017663 0 0
-0.090415008 0.76104975 0.38900864 0.773009 0.634395 0 0
-0.10060452 0.7672357 0.38967597 0.29028174 0.95694125 0 0
-0.087364286 0.56377417 0.39084983 0.47140169 -0.88191867 0 0
-0.009248551 0.66008329 0.39023346 -0.47140169 0.88191867 0 0
0.12845007 0.70490295 0.39048794 0.29028091 -0.95694149 0 0
0.13850062 0.70956534 0.39080188 0.63439417 -0.77300978 0 0
0.098826744 0.72275627 0.39052388 -0.95694065 -0.29028359 0 0
-0.083174586 0.74454063 0.39042696 0.99518472 0.098017663 0 0
0.10226527 0.74429524 0.39002529 -0.77300835 0.63439596 0 0
-0.13284025 0.75034153 0.39000565 -0.95693982 0.29028636 0 0
0.085096553 0.44756189 0.39193964 -0.95694017 -0.29028526 0 0
0.083950832 0.45603693 0.3918193 -0.99518472 0.098017074 0 0
0.13419552 0.46045387 0.39119175 0.95693934 0.290288 0 0
0.085398398 0.46348333 0.39112011 -0.95694017 0.29028526 0 0
0.013176665 0.51433885 0.39165229 0.88192242 -0.47139457 0 0
-0.097419351 0.56012487 0.39192387 0.098017074 -0.99518472 0 0
-0.084468715 0.56599188 0.39164776 0.63439268 -0.77301097 0 0
-0.1253058 0.59241003 0.39134085 -0.9569397 0.29028693 0 0
-0.081427477 0.60143042 0.39168149 0.77300835 0.63439596 0 0
-0.016640151 0.61975753 0.39102867 -0.77300835 -0.63439596 0 0
0.024231749 0.62536085 0.39153105 0.88192242 -0.47139457 0 0
-0.01105089 0.65911984 0.39195317 -0.47140169 0.88191867 0 0
-0.1242458 0.72322524 0.3913492 -0.6343919 -0.77301157 0 0
0.13451956 0.45193648 0.39224672 0.99518472 -0.098017074 0 0
0.087418772 0.46782321 0.39291978 -0.88192111 0.47139704 0 0
0.0072991508 0.50738358 0.39201736 0.6343919 -0.77301157 0 0
0.0070999735 0.61233747 0.39269319 0.29028174 -0.95694125 0 0
-0.013533238 0.65745062 0.39257333 -0.63439268 0.77301097 0 0
-0.12380463 0.7228632 0.39228573 -0.6343919 -0.77301157 0 0
0.14508083 0.74266481 0.39259243 0.88192242 0.47139457 0 0
0.11779572 0.75468069 0.39227656 -0.29028174 0.95694125 0 0
-0.088485688 0.75869882 0.39289656 0.773009 0.634395 0 0
-0.091189474 0.76171941 0.39229915 0.6343919 0.77301157 0 0
0.11215861 0.42981666 0.39395356 0.098017074 -0.99518472 0 0
0.13172999 0.44311342 0.39311612 0.88192111 -0.47139704 0 0
0.094787218 0.47589546 0.39339089 -0.6343962 0.77300805 0 0
0.12450769 0.47538668 0.39385867 0.63439548 0.77300864 0 0
-0.025593247 0.50788182 0.39305213 -0.6343919 -0.77301157 0 0
-0.094773009 0.56063634 0.39369166 0.29028174 -0.95694125 0 0
-0.12623963 0.58306777 0.39378369 -0.99518478 -0.098016493 0 0
-0.078414217 0.59686887 0.39382607 0.88192242 0.47139457 0 0
-0.10369889 0.610479 0.39355436 -0.098017074 0.99518472 0 0
0.026349522 0.63072109 0.39343792 0.9569397 -0.29028693 0 0
-0.13284348 0.75033092 0.39380425 -0.95693982 0.29028636 0 0
0.112436 0.42984399 0.39459044 0.098017074 -0.99518472 0 0
0.12004576 0.43198937 0.39419383 0.47139239 -0.88192356 0 0
-0.12255923 0.57184809 0.39484414 -0.88192242 -0.47139457 0 0
-0.12603335 0.58954996 0.3940067 -0.99518478 0.098016493 0 0
0.00070291525 0.6118654 0.39422596 -0.098017074 -0.99518472 0 0
0.018791554 0.61835611 0.39420742 0.63439268 -0.77301097 0 0
0.10810398 0.70938289 0.39407051 -0.63439268 -0.77301097 0 0
0.14540412 0.71756506 0.39453107 0.88192242 -0.47139457 0 0
-0.097805798 0.72010118 0.39475426 0.47140169 -0.88191867 0 0
-0.13360493 0.73903519 0.39472571 -0.99518472 -0.098017663 0 0
0.13798544 0.75048256 0.39411247 0.63439417 0.77300978 0 0
-0.092168443 0.76252282 0.39437383 0.6343919 0.77301157 0 0
0.093785465 0.47507334 0.39574301 -0.6343962 0.77300805 0 0
0.0035250043 0.50479877 0.3952145 0.47140169 -0.88191867 0 0
-0.034078278 0.52950084 0.39511237 -0.99518478 0.098016493 0 0
-0.10854819 0.56105566 0.39544359 -0.29028174 -0.95694125 0 0
-0.096456006 0.61030328 0.39501056 0.098017074 0.99518472 0 0
0.011034068 0.61353081 0.39506748 0.29028174 -0.95694125 0 0
0.012844558 0.61437339 0.39563468 0.47140169 -0.88191867 0 0
0.014547126 0.61528337 0.39543638 0.47140169 -0.88191867 0 0
0.02580663 0.6289314 0.39523417 0.9569397 -0.29028693 0 0
-0.022620384 0.63044429 0.39582518 -0.9569397 -0.29028693 0 0
0.026991915 0.64045954 0.39507353 0.99518478 0.098016493 0 0
0.14842062 0.73241949 0.39533621 0.99518472 0.098017663 0 0
-0.084918365 0.7335692 0.39527854 0.95694065 -0.29028359 0 0
-0.012903477 0.50186068 0.39635271 -0.098017074 -0.99518472 0 0
-0.08838366 0.56322932 0.39603174 0.47140169 -0.88191867 0 0
-0.11798496 0.56641442 0.39694914 -0.63439268 -0.77301097 0 0
0.018448766 0.61807477 0.39678496 0.63439268 -0.77301097 0 0
0.10123883 0.74254793 0.39611813 -0.88192242 0.47139457 0 0
0.10334839 0.74561501 0.39608377 -0.77300835 0.63439596 0 0
-0.084796168 0.75229311 0.39603865 0.95694065 0.29028359 0 0
0.13287279 0.75338054 0.39635712 0.29028091 0.95694149 0 0
0.12441238 0.47546488 0.39761937 0.63439548 0.77300864 0 0
-0.10881588 0.56113684 0.39767748 -0.29028174 -0.95694125 0 0
-0.081081651 0.56951404 0.39798203 0.77300835 -0.63439596 0 0
0.026961759 0.64076573 0.39741391 0.99518478 0.098016493 0 0
-0.022290163 0.64512712 0.39788222 -0.9569397 0.29028693 0 0
0.14822543 0.73440123 0.39780617 0.99518472 0.098017663 0 0
0.10468698 0.74724609 0.39759722 -0.77300835 0.63439596 0 0
-0.086965546 0.75660807 0.3976118 0.88192242 0.47139457 0 0
-0.12262821 0.7643522 0.39748889 -0.47140169 0.88191867 0 0
0.1109079 0.42969349 0.39888459 0.098017074 -0.99518472 0 0
0.084805466 0.44852149 0.39808214 -0.95694017 -0.29028526 0 0
-0.032660063 0.51808494 0.39863631 -0.9569397 -0.29028693 0 0
-0.033493757 0.53306091 0.39884061 -0.9569397 0.29028693 0 0
-0.023600392 0.54764783 0.39814612 -0.6343919 0.77301157 0 0
-0.10892279 0.56116927 0.39862853 -0.29028174 -0.95694125 0 0
-0.077693567 0.57500249 0.39813274 0.88192242 -0.47139457 0 0
0.0068238256 0.61225367 0.39892387 0.29028174 -0.95694125 0 0
0.025035294 0.64761865 0.39837012 0.88192242 0.47139457 0 0
-0.016726067 0.65462065 0.39864501 -0.77300835 0.63439596 0 0
0.010317323 0.66116941 0.39878541 0.29028174 0.95694125 0 0
0.0026869313 0.6626426 0.39871848 0.098017074 0.99518472 0 0
0.12812307 0.70481199 0.39845613 0.098017223 -0.99518472 0 0
-0.10571638 0.71792269 0.39882022 0.098017074 -0.99518472 0 0
0.10266214 0.74477875 0.39852172 -0.77300835 0.63439596 0 0
-0.13134013 0.75424838 0.39869285 -0.88192242 0.47139457 0 0
-0.095095769 0.76471549 0.39826855 0.47140169 0.88191867 0 0
0.094036676 0.47527948 0.39960355 -0.6343962 0.77300805 0 0
-0.11262682 0.56273305 0.39905828 -0.47140169 -0.88191867 0 0
-0.12600113 0.58064616 0.39995235 -0.99518478 -0.098016493 0 0
-0.020541312 0.64920664 0.39954945 -0.88192242 0.47139457 0 0
0.024194796 0.64919108 0.39980674 0.88192242 0.47139457 0 0
0.14839971 0.73263162 0.39968467 0.99518472 0.098017663 0 0
0.13985263 0.74895024 0.3992081 0.63439417 0.77300978 0 0
0.085866295 0.46491876 0.40003031 -0.88192111 0.47139704 0 0
0.087951832 0.46882051 0.40048555 -0.88192111 0.47139704 0 0
-0.013589971 0.50192827 0.40000287 -0.098017074 -0.99518472 0 0
0.014815366 0.51756513 0.40016013 0.9569397 -0.29028693 0 0
-0.10953583 0.60916781 0.40098453 -0.29028174 0.95694125 0 0
0.13953449 0.71041381 0.40071055 0.63439417 -0.77300978 0 0
-0.13382663 0.74497902 0.40033123 -0.99518472 0.098017663 0 0
0.14237151 0.74642193 0.40052831 0.77300978 0.63439417 0 0
0.11215638 0.75267386 0.40035528 -0.47140169 0.88191867 0 0
0.12017323 0.7550016 0.40015119 -0.098017074 0.99518472 0 0
0.088912986 0.47011864 0.40144098 -0.77301073 0.63439298 0 0
0.1073849 0.48031908 0.40134448 -0.098017074 0.99518472 0 0
-0.12427713 0.57506204 0.40138853 -0.88192242 -0.47139457 0 0
-0.12496528 0.57699049 0.40157247 -0.9569397 -0.29028693 0 0
-0.12542394 0.57850248 0.40176481 -0.9569397 -0.29028693 0 0
-0.12630729 0.58375466 0.40116334 -0.99518478 -0.098016493 0 0
-0.12599446 0.58994478 0.40167978 -0.99518478 0.098016493 0 0
-0.083405986 0.60365903 0.40142453 0.63439268 0.77301097 0 0
-0.11262436 0.6077913 0.40178531 -0.47140169 0.88191867 0 0
-0.021364577 0.64766645 0.40191287 -0.88192242 0.47139457 0 0
0.0075224563 0.66201723 0.40182787 0.29028174 0.95694125 0 0
-0.1336402 0.74687207 0.40169337 -0.99518472 0.098017663 0 0
0.091591097 0.43677777 0.40244851 -0.6343962 -0.77300805 0 0
0.011902629 0.51224548 0.40236372 0.773009 -0.634395 0 0
0.016280916 0.53062117 0.40282738 0.99518466 0.098017976 0 0
0.012689751 0.54046637 0.4025625 0.88192242 0.47139457 0 0
-0.1323452 0.73429173 0.40275538 -0.95693982 -0.29028636 0 0
-0.085093327 0.75310534 0.40239406 0.88192242 0.47139457 0 0
0.11962369 0.43176377 0.40321892 0.47139239 -0.88192356 0 0
0.08450222 0.46052906 0.40363866 -0.95694017 0.29028526 0 0
0.085781358 0.46474582 0.40384492 -0.95694017 0.29028526 0 0
0.015009457 0.53568912 0.40370303 0.9569397 0.29028693 0 0
-0.077317864 0.57585543 0.40337107 0.9569397 -0.29028693 0 0
-0.023092527 0.64248216 0.40392971 -0.9569397 0.29028693 0 0
0.02012256 0.65492368 0.40325457 0.77300835 0.63439596 0 0
0.14863774 0.72941005 0.40399647 0.99518472 -0.098017663 0 0
-0.084396526 0.73528951 0.40354905 0.95694065 -0.29028359 0 0
-0.083332792 0.74614686 0.4038941 0.99518472 0.098017663 0 0
0.10613405 0.74862564 0.40340012 -0.63439268 0.77301097 0 0
0.12171249 0.47716996 0.40468132 0.47139239 0.88192356 0 0
0.10298597 0.47960326 0.40425667 -0.29028717 0.95693958 0 0
0.015563257 0.52003062 0.4040167 0.9569397 -0.29028693 0 0
-0.032735214 0.5355615 0.4043785 -0.9569397 0.29028693 0 0
-0.080941714 0.56968451 0.40495554 0.77300835 -0.63439596 0 0
-0.075771526 0.58818966 0.40401727 0.99518478 0.098016493 0 0
0.098053649 0.72627068 0.40446314 -0.99518472 -0.098017663 0 0
0.14619467 0.74058098 0.40482426 0.88192242 0.47139457 0 0
-0.096685238 0.76556504 0.40470022 0.47140169 0.88191867 0 0
-0.11520176 0.76761127 0.40426177 -0.29028174 0.95694125 0 0
0.11558858 0.43041652 0.40588978 0.29028717 -0.95693958 0 0
0.12016468 0.43205294 0.40586993 0.47139239 -0.88192356 0 0
0.09004546 0.43855169 0.40575346 -0.77301073 -0.63439298 0 0
-0.03295327 0.51905149 0.40521654 -0.9569397 -0.29028693 0 0
-0.079514459 0.59892726 0.40581524 0.88192242 0.47139457 0 0
0.099566996 0.72031593 0.40556934 -0.95694065 -0.29028359 0 0
-0.083305508 0.74586987 0.40596908 0.99518472 0.098017663 0 0
0.11224516 0.42982519 0.40669167 0.098017074 -0.99518472 0 0
0.094814025 0.43413275 0.40675443 -0.6343962 -0.77300805 0 0
-0.097923942 0.61044782 0.40602499 0.098017074 0.99518472 0 0
-0.01259014 0.61625826 0.40661353 -0.63439268 -0.77301097 0 0
0.026957501 0.63367391 0.40674913 0.99518478 -0.098016493 0 0
0.12804548 0.70480442 0.40614194 0.098017223 -0.99518472 0 0
0.099602342 0.72019947 0.4065035 -0.95694065 -0.29028359 0 0
0.14852965 0.72831273 0.40604639 0.99518472 -0.098017663 0 0
-0.084440783 0.75112158 0.40606609 0.95694065 0.29028359 0 0
0.11972652 0.75495762 0.40603399 -0.098017074 0.99518472 0 0
-0.10491269 0.7682634 0.40601844 0.098017074 0.99518472 0 0
0.08465746 0.44900939 0.40745074 -0.95694017 -0.29028526 0 0
0.084052913 0.45707333 0.40735516 -0.99518472 0.098017074 0 0
-0.029786337 0.54140902 0.4071036 -0.773009 0.634395 0 0
-0.10674945 0.56050998 0.40782505 -0.29028174 -0.95694125 0 0
-0.12087087 0.60099238 0.40753472 -0.77300835 0.63439596 0 0
-0.097850226 0.61044061 0.40722388 0.098017074 0.99518472 0 0
0.020823337 0.62041306 0.407464 0.77300835 -0.63439596 0 0
-0.022453461 0.62989402 0.40785965 -0.9569397 -0.29028693 0 0
0.022868102 0.65157825 0.40735018 0.77300835 0.63439596 0 0
-0.016406339 0.65501022 0.40768594 -0.77300835 0.63439596 0 0
-0.0058038025 0.66143286 0.40712827 -0.29028174 0.95694125 0 0
0.12208556 0.70443511 0.40745181 -0.098017074 -0.99518472 0 0
0.1464633 0.71954668 0.40759119 0.88192242 -0.47139457 0 0
0.090185821 0.43838066 0.4087044 -0.77301073 -0.63439298 0 0
-0.033451553 0.53320009 0.40857989 -0.9569397 0.29028693 0 0
-0.012735731 0.55204999 0.40895644 -0.098017074 0.99518472 0 0
-0.12636903 0.58614171 0.40873128 -0.99518478 0.098016493 0 0
-0.11679304 0.6050868 0.40867126 -0.63439268 0.77301097 0 0
0.12313218 0.70433211 0.40844676 -0.098017074 -0.99518472 0 0
-0.083117723 0.74230194 0.40809801 0.99518472 -0.098017663 0 0
-0.094176926 0.76417112 0.40818304 0.6343919 0.77301157 0 0
-0.021110162 0.62634051 0.4091579 -0.88192242 -0.47139457 0 0
0.1205789 0.70458353 0.40999216 -0.098017074 -0.99518472 0 0
0.11348115 0.70625317 0.40950418 -0.29028174 -0.95694125 0 0
0.10921444 0.70852381 0.40975305 -0.47140169 -0.88191867 0 0
0.10673265 0.42979538 0.41051304 -0.098017074 -0.99518472 0 0
0.084207259 0.45140982 0.41013369 -0.99518472 -0.098017074 0 0
0.11647457 0.47936493 0.4107019 0.29028717 0.95693958 0 0
-0.086120248 0.56463653 0.41022748 0.63439268 -0.77301097 0 0
0.0097796684 0.6131503 0.41067266 0.29028174 -0.95694125 0 0
0.027108777 0.6352098 0.41088957 0.99518478 -0.098016493 0 0
0.012415024 0.66033912 0.41026354 0.47140169 0.88191867 0 0
-0.13303554 0.7365675 0.41016108 -0.95693982 -0.29028636 0 0
0.10062385 0.74139738 0.41074562 -0.88192242 0.47139457 0 0
0.1035431 0.74585217 0.41034901 -0.77300835 0.63439596 0 0
0.13250215 0.75349295 0.4106535 0.29028091 0.95694149 0 0
0.1221415 0.43310952 0.41159546 0.47139239 -0.88192356 0 0
0.13355492 0.46256569 0.41162294 0.95693934 0.290288 0 0
0.093347698 0.47471404 0.41106254 -0.6343962 0.77300805 0 0
0.01519696 0.53507107 0.41167629 0.9569397 0.29028693 0 0
0.0025667283 0.61182845 0.41170171 0.098017074 -0.99518472 0 0
-0.019454878 0.62324357 0.41199803 -0.88192242 -0.47139457 0 0
0.025919722 0.64517862 0.41162357 0.9569397 0.29028693 0 0
-0.13308403 0.73672736 0.41156518 -0.95693982 -0.29028636 0 0
0.086817756 0.44335139 0.41202837 -0.88192111 -0.47139704 0 0
0.012849579 0.51372683 0.412844 0.88192242 -0.47139457 0 0
-0.022914171 0.54818559 0.41207767 -0.47140169 0.88191867 0 0
-0.023102053 0.63203216 0.4128477 -0.9569397 -0.29028693 0 0
0.027069777 0.63481385 0.41203445 0.99518478 -0.098016493 0 0
-0.012148471 0.65853322 0.41226798 -0.47140169 0.88191867 0 0
0.12072386 0.70456928 0.41235548 -0.098017074 -0.99518472 0 0
0.10270602 0.43053189 0.41392708 -0.29028717 -0.95693958 0 0
0.1006659 0.43115076 0.41334927 -0.29028717 -0.95693958 0 0
0.13368592 0.44791636 0.41376877 0.95693934 -0.290288 0 0
0.086513147 0.46612895 0.41399926 -0.88192111 0.47139704 0 0
-0.010825504 0.501656 0.4132885 -0.098017074 -0.99518472 0 0
-0.016049724 0.50262821 0.41395181 -0.29028174 -0.95694125 0 0
-0.031810842 0.53778338 0.41348219 -0.88192242 0.47139457 0 0
-0.10221577 0.55989802 0.41321045 -0.098017074 -0.99518472 0 0
-0.12619334 0.58792549 0.41386476 -0.99518478 0.098016493 0 0
-0.021288019 0.64780968 0.41311476 -0.88192242 0.47139457 0 0
0.11418815 0.70603865 0.41378456 -0.29028174 -0.95694125 0 0
-0.10307516 0.76798511 0.41330296 0.29028174 0.95694125 0 0
0.12938423 0.43947133 0.41473442 0.77301216 -0.63439119 0 0
-0.028939355 0.51145309 0.41418642 -0.773009 -0.634395 0 0
-0.094677404 0.60985774 0.41471732 0.29028174 0.95694125 0 0
0.012744423 0.6143198 0.41401398 0.47140169 -0.88191867 0 0
0.13017865 0.70542735 0.41467273 0.29028091 -0.95694149 0 0
0.099645868 0.72005749 0.41405839 -0.88192242 -0.47139457 0 0
-0.13211539 0.73353416 0.41476744 -0.95693982 -0.29028636 0 0
0.13821688 0.75029266 0.41405159 0.63439417 0.77300978 0 0
0.13323174 0.44641918 0.41539311 0.95693934 -0.290288 0 0
0.10484931 0.48006934 0.41509521 -0.098017074 0.99518472 0 0
0.0054623047 0.50587612 0.4154883 0.6343919 -0.77301157 0 0
-0.11477916 0.56388354 0.41538292 -0.47140169 -0.88191867 0 0
-0.075543739 0.58464611 0.41595003 0.99518478 -0.098016493 0 0
-0.07549753 0.58540773 0.41526082 0.99518478 0.098016493 0 0
-0.11814484 0.60397744 0.41564357 -0.63439268 0.77301097 0 0
-0.10528722 0.61032259 0.4151721 -0.098017074 0.99518472 0 0
0.022337716 0.65222454 0.41562873 0.77300835 0.63439596 0 0
0.020796048 0.65410298 0.41523182 0.77300835 0.63439596 0 0
0.13517728 0.70745987 0.4154287 0.47140169 -0.88191867 0 0
0.099347547 0.73858571 0.41564804 -0.95694065 0.29028359 0 0
-0.084030181 0.74976802 0.41570508 0.95694065 0.29028359 0 0
0.13962622 0.74913597 0.41566056 0.63439417 0.77300978 0 0
-0.12493837 0.76247162 0.41570503 -0.6343919 0.77301157 0 0
0.091590896 0.47327226 0.41676128 -0.6343962 0.77300805 0 0
-0.0021731202 0.50246567 0.41633752 0.29028174 -0.95694125 0 0
-0.0010338076 0.50281125 0.41656849 0.29028174 -0.95694125 0 0
0.0053925989 0.50581896 0.41654268 0.6343919 -0.77301157 0 0
-0.088602014 0.56311262 0.41627419 0.47140169 -0.88191867 0 0
-0.075484604 0.58524644 0.41699955 0.99518478 -0.098016493 0 0
-0.12614742 0.58839148 0.4163042 -0.99518478 0.098016493 0 0
-0.12236592 0.59903663 0.41691816 -0.88192242 0.47139457 0 0
0.017883562 0.61761093 0.41676781 0.63439268 -0.77301097 0 0
-0.01788923 0.62127954 0.41638499 -0.77300835 -0.63439596 0 0
0.026043886 0.62971359 0.4166736 0.9569397 -0.29028693 0 0
0.098522902 0.72375792 0.41645271 -0.95694065 -0.29028359 0 0
0.093938127 0.47519863 0.41753349 -0.6343962 0.77300805 0 0
0.0051097479 0.50564581 0.41732734 0.47140169 -0.88191867 0 0
0.013483311 0.51491249 0.41768 0.88192242 -0.47139457 0 0
-0.1191992 0.60302925 0.41764036 -0.77300835 0.63439596 0 0
-0.0068371054 0.61336344 0.41719681 -0.29028174 -0.95694125 0 0
-0.017474189 0.65370905 0.41764593 -0.77300835 0.63439596 0 0
0.11914876 0.70472437 0.41728401 -0.098017074 -0.99518472 0 0
0.14774092 0.73625743 0.41740203 0.95693982 0.29028636 0 0
0.083881848 0.45533651 0.4183284 -0.99518472 0.098017074 0 0
0.13233571 0.46580353 0.41893846 0.88192111 0.47139704 0 0
0.11926726 0.47847694 0.41891456 0.47139239 0.88192356 0 0
-0.029476775 0.51210791 0.4188872 -0.773009 -0.634395 0 0
0.015450042 0.53423685 0.41847557 0.9569397 0.29028693 0 0
-0.12642528 0.58557045 0.41800904 -0.99518478 0.098016493 0 0
-0.077794127 0.59570873 0.41888618 0.88192242 0.47139457 0 0
-0.10399451 0.61044985 0.41808647 -0.098017074 0.99518472 0 0
0.007512561 0.66202027 0.41876596 0.29028174 0.95694125 0 0
0.13289976 0.70625281 0.41827825 0.29028091 -0.95694149 0 0
-0.10620428 0.71787459 0.4184199 0.098017074 -0.99518472 0 0
-0.099245697 0.71944171 0.41818422 0.29028174 -0.95694125 0 0
0.13021454 0.44048306 0.41918981 0.77301216 -0.63439119 0 0
0.085650928 0.46431586 0.41978824 -0.95694017 0.29028526 0 0
0.12813862 0.47209668 0.41945177 0.77301216 0.63439119 0 0
0.098808512 0.47815672 0.41916737 -0.47139239 0.88192356 0 0
0.0038092332 0.50495064 0.41971466 0.47140169 -0.88191867 0 0
-0.019473763 0.55002451 0.41920936 -0.47140169 0.88191867 0 0
-0.11155231 0.5621587 0.41968995 -0.47140169 -0.88191867 0 0
-0.1200501 0.56853056 0.41945797 -0.77300835 -0.63439596 0 0
-0.021588963 0.62723625 0.41908616 -0.88192242 -0.47139457 0 0
0.11945276 0.70469445 0.41975427 -0.098017074 -0.99518472 0 0
-0.12551698 0.72426844 0.41937402 -0.6343919 -0.77301157 0 0
-0.086226583 0.73103964 0.41939411 0.88192242 -0.47139457 0 0
-0.084825784 0.75239074 0.41976267 0.95694065 0.29028359 0 0
0.091952868 0.47356933 0.42044476 -0.6343962 0.77300805 0 0
0.01368269 0.53860867 0.42052239 0.88192242 0.47139457 0 0
-0.075735591 0.58782476 0.42043161 0.99518478 0.098016493 0 0
0.01993089 0.65515721 0.42014059 0.77300835 0.63439596 0 0
-0.13386524 0.74458694 0.42050293 -0.99518472 0.098017663 0 0
-0.13357835 0.74749994 0.42038339 -0.99518472 0.098017663 0 0
0.12404751 0.75521451 0.42045268 0.098017223 0.99518472 0 0
0.11625439 0.43061846 0.42181596 0.29028717 -0.95693958 0 0
0.093730599 0.43502194 0.4217422 -0.6343962 -0.77300805 0 0
0.089901939 0.47132364 0.42121947 -0.77301073 0.63439298 0 0
-0.084771588 0.56574327 0.42146045 0.63439268 -0.77301097 0 0
0.018012797 0.61771697 0.42199716 0.63439268 -0.77301097 0 0
-0.019202184 0.65160346 0.42137116 -0.77300835 0.63439596 0 0
0.020874888 0.65400696 0.42182201 0.77300835 0.63439596 0 0
0.11015644 0.70802027 0.42183381 -0.47140169 -0.88191867 0 0
0.13649529 0.70816433 0.42199165 0.47140169 -0.88191867 0 0
0.099056236 0.73762536 0.42134717 -0.95694065 0.29028359 0 0
0.0078853834 0.50786471 0.42233905 0.6343919 -0.77301157 0 0
-0.080651708 0.5700379 0.42247552 0.77300835 -0.63439596 0 0
-0.1222247 0.57122219 0.42296624 -0.88192242 -0.47139457 0 0
-0.1064596 0.61010098 0.4221009 -0.29028174 0.95694125 0 0
0.12759683 0.70476019 0.42226797 0.098017223 -0.99518472 0 0
-0.10578225 0.71791613 0.42256802 0.098017074 -0.99518472 0 0
0.10459632 0.74713564 0.42231122 -0.77300835 0.63439596 0 0
0.096984841 0.43286824 0.42345768 -0.47139239 -0.88192356 0 0
0.1172744 0.47912231 0.42327264 0.29028717 0.95693958 0 0
-0.014532395 0.50216794 0.42303708 -0.29028174 -0.95694125 0 0
0.013200467 0.51438332 0.42352921 0.88192242 -0.47139457 0 0
-0.033185523 0.53407705 0.42316055 -0.9569397 0.29028693 0 0
0.010044413 0.54391295 0.42370799 0.773009 0.634395 0 0
-0.097483113 0.61040443 0.42301223 0.098017074 0.99518472 0 0
-0.018753644 0.62233281 0.42382121 -0.77300835 -0.63439596 0 0
-0.0033201184 0.66218626 0.42380434 -0.29028174 0.95694125 0 0
0.14835541 0.73308146 0.42360392 0.99518472 0.098017663 0 0
-0.083831817 0.74911404 0.42371964 0.95694065 0.29028359 0 0
-0.087558687 0.75756931 0.42372388 0.773009 0.634395 0 0
0.13424668 0.44976494 0.4240458 0.95693934 -0.290288 0 0
0.0094107278 0.5092091 0.42455247 0.773009 -0.634395 0 0
-0.077905267 0.57460636 0.42434484 0.88192242 -0.47139457 0 0
0.0093325553 0.6130147 0.42485902 0.29028174 -0.95694125 0 0
0.010871711 0.61348158 0.42427444 0.29028174 -0.95694125 0 0
0.019501094 0.65554452 0.42402929 0.63439268 0.77301097 0 0
0.10574713 0.74830806 0.42499462 -0.63439268 0.77301097 0 0
-0.12808618 0.75927466 0.4247269 -0.77300978 0.63439417 0 0
-0.11871573 0.76644349 0.42410481 -0.47140169 0.88191867 0 0
0.13155313 0.44278258 0.42531809 0.88192111 -0.47139704 0 0
0.11920674 0.47850931 0.42527568 0.47139239 0.88192356 0 0
-0.094418459 0.56074387 0.42576951 0.29028174 -0.95694125 0 0
-0.090064257 0.56233096 0.42560497 0.47140169 -0.88191867 0 0
-0.11957689 0.60256904 0.42548022 -0.77300835 0.63439596 0 0
-0.0085427761 0.61402237 0.42592025 -0.47140169 -0.88191867 0 0
0.027268598 0.63765037 0.42522752 0.99518478 0.098016493 0 0
0.10936363 0.708444 0.42584515 -0.47140169 -0.88191867 0 0
0.098138437 0.72540987 0.42510882 -0.99518472 -0.098017663 0 0
-0.089730591 0.72604942 0.42553347 0.773009 -0.634395 0 0
-0.083145589 0.74201906 0.42514965 0.99518472 -0.098017663 0 0
-0.083224624 0.74504864 0.42582089 0.99518472 0.098017663 0 0
0.10625368 0.74872386 0.42531589 -0.63439268 0.77301097 0 0
0.088382743 0.44057772 0.42642039 -0.77301073 -0.63439298 0 0
0.13476208 0.45565146 0.42605025 0.99518472 0.098017074 0 0
0.0051378896 0.50566089 0.42681983 0.47140169 -0.88191867 0 0
-0.03169829 0.53799391 0.42696971 -0.88192242 0.47139457 0 0
0.013216063 0.53948164 0.42615232 0.88192242 0.47139457 0 0
-0.10039452 0.61069119 0.42650995 0.098017074 0.99518472 0 0
-0.0053215157 0.66157913 0.42668921 -0.29028174 0.95694125 0 0
0.11692764 0.70520771 0.42646727 -0.29028174 -0.95694125 0 0
0.1042466 0.74670947 0.42652506 -0.77300835 0.63439596 0 0
0.10704099 0.74936992 0.42671496 -0.63439268 0.77301097 0 0
-0.10604001 0.76837444 0.42646873 0.098017074 0.99518472 0 0
0.098581836 0.47803551 0.42719734 -0.47139239 0.88192356 0 0
-0.0093874121 0.50151438 0.42796502 -0.098017074 -0.99518472 0 0
-0.11410823 0.5635249 0.42733085 -0.47140169 -0.88191867 0 0
-0.12132601 0.60043782 0.42751855 -0.77300835 0.63439596 0 0
-0.082288906 0.60248011 0.42733952 0.77300835 0.63439596 0 0
-0.1181048 0.60401028 0.4274376 -0.63439268 0.77301097 0 0
-0.10701933 0.7177943 0.42744571 0.098017074 -0.99518472 0 0
0.098941311 0.72237855 0.42738566 -0.95694065 -0.29028359 0 0
0.10097976 0.74206322 0.42734441 -0.88192242 0.47139457 0 0
0.14309336 0.74554235 0.42720175 0.77300978 0.63439417 0 0
-0.12604633 0.76156241 0.42771345 -0.6343919 0.77301157 0 0
0.12528591 0.4353022 0.42863178 0.63439548 -0.77300864 0 0
0.016564908 0.5277378 0.42885113 0.99518466 0.098017976 0 0
-0.11912097 0.56739843 0.42814732 -0.77300835 -0.63439596 0 0
-0.078809507 0.5729146 0.42843249 0.88192242 -0.47139457 0 0
-0.0076609375 0.61361337 0.42847192 -0.29028174 -0.95694125 0 0
-0.021491492 0.62705386 0.42842901 -0.88192242 -0.47139457 0 0
0.025995918 0.62955546 0.42847073 0.9569397 -0.29028693 0 0
-0.013953621 0.65710557 0.42888123 -0.63439268 0.77301097 0 0
-0.11693391 0.76708579 0.42850521 -0.29028174 0.95694125 0 0
0.11073438 0.42967641 0.42988637 0.098017074 -0.99518472 0 0
0.11054802 0.48039216 0.42987746 0.098017074 0.99518472 0 0
0.0069195731 0.50707209 0.42989919 0.6343919 -0.77301157 0 0
0.0085487319 0.54548502 0.42961952 0.6343919 0.77301157 0 0
-0.081234977 0.60119587 0.42921054 0.77300835 0.63439596 0 0
-0.092160888 0.60909438 0.42952752 0.29028174 0.95694125 0 0
0.026913451 0.64125621 0.42967987 0.99518478 0.098016493 0 0
0.016100708 0.65833509 0.42904529 0.63439268 0.77301097 0 0
0.10066399 0.7181527 0.42958409 -0.88192242 -0.47139457 0 0
0.099889062 0.71960247 0.42978984 -0.88192242 -0.47139457 0 0
-0.12500514 0.7238484 0.42913824 -0.6343919 -0.77301157 0 0
-0.13027745 0.73002863 0.42922413 -0.88192242 -0.47139457 0 0
-0.13342217 0.73784196 0.42948094 -0.95693982 -0.29028636 0 0
0.14684936 0.73919642 0.42971334 0.95693982 0.29028636 0 0
0.10625781 0.7487272 0.42984581 -0.63439268 0.77301097 0 0
-0.090365373 0.76098931 0.42994165 0.773009 0.634395 0 0
0.13210706 0.4438189 0.43035835 0.88192111 -0.47139704 0 0
-0.12610662 0.58171713 0.43096781 -0.99518478 -0.098016493 0 0
-0.11378734 0.60716957 0.43074805 -0.47140169 0.88191867 0 0
-0.0928175 0.60929352 0.43041587 0.29028174 0.95694125 0 0
-0.0083605545 0.61392498 0.43037292 -0.47140169 -0.88191867 0 0
-0.0086616091 0.61408591 0.430291 -0.47140169 -0.88191867 0 0
0.11761276 0.70499986 0.43077692 -0.29028174 -0.95694125 0 0
0.13487777 0.75232536 0.43081811 0.47140169 0.88191867 0 0
0.09404207 0.47528392 0.43155041 -0.6343962 0.77300805 0 0
-0.021608476 0.50501066 0.43184 -0.47140169 -0.88191867 0 0
0.01419221 0.53765541 0.43109268 0.88192242 0.47139457 0 0
-0.095569298 0.56039476 0.43158454 0.29028174 -0.95694125 0 0
-0.10889867 0.56116199 0.4314326 -0.29028174 -0.95694125 0 0
-0.12060122 0.56920213 0.43140253 -0.77300835 -0.63439596 0 0
-0.12292766 0.57253736 0.43164548 -0.88192242 -0.47139457 0 0
-0.12634097 0.58642644 0.43175662 -0.99518478 0.098016493 0 0
-0.085660748 0.60550946 0.43144938 0.63439268 0.77301097 0 0
0.02724058 0.63654804 0.4313339 0.99518478 -0.098016493 0 0
-0.021009585 0.64833057 0.43123043 -0.88192242 0.47139457 0 0
0.11374885 0.70617199 0.43110168 -0.29028174 -0.95694125 0 0
-0.13066559 0.73075485 0.43125519 -0.88192242 -0.47139457 0 0
-0.08597672 0.73150706 0.43164417 0.88192242 -0.47139457 0 0
-0.13252632 0.73488879 0.43192273 -0.95693982 -0.29028636 0 0
-0.13001131 0.75673443 0.4319973 -0.88192242 0.47139457 0 0
0.11980071 0.43185842 0.43249765 0.47139239 -0.88192356 0 0
0.015749726 0.5332489 0.43267322 0.9569397 0.29028693 0 0
-0.086448103 0.56436747 0.43286192 0.63439268 -0.77301097 0 0
-0.076814428 0.57751501 0.43268043 0.9569397 -0.29028693 0 0
-0.021902397 0.62807739 0.43238908 -0.9569397 -0.29028693 0 0
0.021542672 0.65319324 0.43225449 0.77300835 0.63439596 0 0
0.1483084 0.72606629 0.43294781 0.99518472 -0.098017663 0 0
0.12067407 0.43232518 0.4338496 0.47139239 -0.88192356 0 0
0.12126832 0.43264282 0.43371236 0.47139239 -0.88192356 0 0
0.084978461 0.4479512 0.43342492 -0.95694017 -0.29028526 0 0
-0.018353876 0.55056703 0.43319863 -0.29028174 0.95694125 0 0
-0.090082355 0.60820174 0.43316203 0.47140169 0.88191867 0 0
0.019543722 0.61897343 0.43355164 0.63439268 -0.77301097 0 0
-0.020765958 0.64878643 0.43360049 -0.88192242 0.47139457 0 0
0.14563267 0.74163246 0.43369561 0.88192242 0.47139457 0 0
0.1299312 0.75427282 0.43380392 0.29028091 0.95694149 0 0
-0.11464572 0.76777995 0.43395141 -0.29028174 0.95694125 0 0
0.1344212 0.45911252 0.434892 0.99518472 0.098017074 0 0
0.13186938 0.466676 0.43408853 0.88192111 0.47139704 0 0
0.015533993 0.53396004 0.43477827 0.9569397 0.29028693 0 0
-0.11214059 0.60804987 0.4348774 -0.47140169 0.88191867 0 0
-0.098018564 0.61045718 0.43407792 0.098017074 0.99518472 0 0
-0.022583377 0.64416063 0.43428284 -0.9569397 0.29028693 0 0
0.017162943 0.65746337 0.43417516 0.63439268 0.77301097 0 0
-0.0088774981 0.66028154 0.43411714 -0.47140169 0.88191867 0 0
0.011046197 0.66094828 0.43491054 0.29028174 0.95694125 0 0
0.00031319621 0.66257906 0.43434748 -0.098017074 0.99518472 0 0
-0.13278575 0.73574406 0.4344964 -0.95693982 -0.29028636 0 0
0.14161842 0.74733961 0.43479061 0.77300978 0.63439417 0 0
0.14001976 0.74881303 0.43455344 0.63439417 0.77300978 0 0
0.13966015 0.74910814 0.43439668 0.63439417 0.77300978 0 0
-0.084108166 0.75002509 0.43429053 0.95694065 0.29028359 0 0
-0.12095957 0.76524413 0.43497494 -0.47140169 0.88191867 0 0
0.084160283 0.45188674 0.43562108 -0.99518472 -0.098017074 0 0
0.13284867 0.46484387 0.43569788 0.88192111 0.47139704 0 0
0.088170499 0.4692139 0.43572876 -0.77301073 0.63439298 0 0
0.1201805 0.47798884 0.43511263 0.47139239 0.88192356 0 0
0.10274621 0.47953051 0.43503264 -0.29028717 0.95693958 0 0
0.10909812 0.48048782 0.43505836 -0.098017074 0.99518472 0 0
-0.0001245062 0.50308704 0.43525457 0.29028174 -0.95694125 0 0
0.015664157 0.53353095 0.4354825 0.9569397 0.29028693 0 0
-0.12487102 0.57667977 0.43554389 -0.9569397 -0.29028693 0 0
-0.12644906 0.58519399 0.43563324 -0.99518478 -0.098016493 0 0
-0.076732025 0.59273636 0.43526053 0.9569397 0.29028693 0 0
-0.11100692 0.60865587 0.43540055 -0.47140169 0.88191867 0 0
-0.10082702 0.61073375 0.4351016 0.098017074 0.99518472 0 0
0.02357051 0.62412381 0.43577549 0.88192242 -0.47139457 0 0
0.027013691 0.64023846 0.43557137 0.99518478 0.098016493 0 0
0.02150996 0.65323317 0.43564922 0.77300835 0.63439596 0 0
0.12266081 0.70437849 0.43516767 -0.098017074 -0.99518472 0 0
0.11550886 0.70563811 0.43546894 -0.29028174 -0.95694125 0 0
0.099335186 0.72108012 0.43501225 -0.95694065 -0.29028359 0 0
0.13416049 0.75270873 0.43580934 0.47140169 0.88191867 0 0
0.11861271 0.75484794 0.43506435 -0.098017074 0.99518472 0 0
-0.10306361 0.76798165 0.43540156 0.29028174 0.95694125 0 0
0.11726241 0.43092424 0.43622369 0.29028717 -0.95693958 0 0
0.1252971 0.43531144 0.43651906 0.63439548 -0.77300864 0 0
0.012036312 0.51240844 0.43679428 0.773009 -0.634395 0 0
-0.028462019 0.54302269 0.43613961 -0.773009 0.634395 0 0
-0.019105332 0.55022144 0.43671525 -0.47140169 0.88191867 0 0
0.024757382 0.62634432 0.43674928 0.88192242 -0.47139457 0 0
-0.08343263 0.73910463 0.43655193 0.99518472 -0.098017663 0 0
-0.088479243 0.75869101 0.43653774 0.773009 0.634395 0 0
0.12931468 0.43938661 0.43738553 0.77301216 -0.63439119 0 0
0.089377552 0.47068468 0.43722561 -0.77301073 0.63439298 0 0
-0.033280291 0.5201295 0.4375903 -0.9569397 -0.29028693 0 0
-0.028463453 0.54302096 0.43793625 -0.773009 0.634395 0 0
-0.01956472 0.54997593 0.43751317 -0.47140169 0.88191867 0 0
-0.02258623 0.64415121 0.43731266 -0.9569397 0.29028693 0 0
0.023110425 0.65121984 0.43721423 0.88192242 0.47139457 0 0
-0.014201262 0.65690237 0.43767834 -0.63439268 0.77301097 0 0
0.12952052 0.70522773 0.43788499 0.29028091 -0.95694149 0 0
0.14646077 0.71954197 0.43771777 0.88192242 -0.47139457 0 0
0.14653572 0.73994291 0.4377892 0.88192242 0.47139457 0 0
-0.13389529 0.74428189 0.43725339 -0.99518472 0.098017663 0 0
-0.12650827 0.7611832 0.43794179 -0.6343919 0.77301157 0 0
0.11530502 0.43033051 0.43880102 0.29028717 -0.95693958 0 0
0.095883712 0.43345681 0.43848625 -0.47139239 -0.88192356 0 0
0.084618308 0.44913846 0.43800706 -0.95694017 -0.29028526 0 0
0.13005504 0.46976146 0.43873799 0.77301216 0.63439119 0 0
-0.024917735 0.54656672 0.43865207 -0.6343919 0.77301157 0 0
0.021898275 0.62172288 0.4386602 0.77300835 -0.63439596 0 0
-0.023235202 0.6328907 0.43802696 -0.99518478 -0.098016493 0 0
-0.11208738 0.71799743 0.4388628 -0.098017074 -0.99518472 0 0
-0.1336886 0.74638045 0.43858498 -0.99518472 0.098017663 0 0
-0.034016084 0.52376187 0.43915203 -0.99518478 -0.098016493 0 0
0.016637003 0.52700579 0.4398253 0.99518466 0.098017976 0 0
0.0081015332 0.54585207 0.43989259 0.6343919 0.77301157 0 0
-0.017225388 0.5509094 0.43991077 -0.29028174 0.95694125 0 0
0.002009101 0.66270936 0.43996203 0.098017074 0.99518472 0 0
-0.10748431 0.71774852 0.43942943 0.098017074 -0.99518472 0 0
0.14651108 0.71963608 0.43909419 0.88192242 -0.47139457 0 0
0.12354331 0.75526416 0.4391202 0.098017223 0.99518472 0 0
0.090293325 0.47180057 0.44068503 -0.77301073 0.63439298 0 0
0.096940562 0.47715828 0.44099349 -0.47139239 0.88192356 0 0
0.11376981 0.48007482 0.44076455 0.098017074 0.99518472 0 0
-0.020482954 0.50440907 0.44084239 -0.47140169 -0.88191867 0 0
-0.025025379 0.50741577 0.44046628 -0.6343919 -0.77301157 0 0
-0.11084638 0.56178141 0.44009513 -0.47140169 -0.88191867 0 0
-0.11429773 0.60689682 0.44019049 -0.47140169 0.88191867 0 0
-0.090415522 0.60837984 0.44042093 0.47140169 0.88191867 0 0
-0.10211861 0.61063462 0.44064048 -0.098017074 0.99518472 0 0
0.026993724 0.64044118 0.44010428 0.99518478 0.098016493 0 0
-0.0083385911 0.66056961 0.44065303 -0.47140169 0.88191867 0 0
0.10258185 0.71494412 0.44003975 -0.77300835 -0.63439596 0 0
-0.11610563 0.7189281 0.44045407 -0.29028174 -0.95694125 0 0
-0.13247657 0.73472476 0.44008762 -0.95693982 -0.29028636 0 0
0.10759139 0.74982166 0.44025594 -0.63439268 0.77301097 0 0
-0.088975497 0.7592957 0.44042259 0.773009 0.634395 0 0
0.084145755 0.45801592 0.44149995 -0.99518472 0.098017074 0 0
0.094114199 0.47534311 0.44103351 -0.6343962 0.77300805 0 0
-0.0095031671 0.50152576 0.4416928 -0.098017074 -0.99518472 0 0
0.0011853758 0.50354815 0.44133854 0.47140169 -0.88191867 0 0
-0.025171891 0.54635817 0.44124186 -0.6343919 0.77301157 0 0
-0.0067029805 0.61332273 0.44147789 -0.29028174 -0.95694125 0 0
0.1296351 0.70526242 0.44158608 0.29028091 -0.95694149 0 0
0.14298771 0.71395403 0.44194472 0.77300978 -0.63439417 0 0
-0.12667182 0.72526717 0.4419401 -0.77300978 -0.63439417 0 0
-0.08487276 0.73371959 0.44130766 0.95694065 -0.29028359 0 0
-0.13246232 0.73467779 0.44154942 -0.95693982 -0.29028636 0 0
-0.13390169 0.74421716 0.44136333 -0.99518472 0.098017663 0 0
-0.1132829 0.76814997 0.44165275 -0.098017074 0.99518472 0 0
0.12046912 0.43221569 0.4421227 0.47139239 -0.88192356 0 0
-0.076496035 0.5919584 0.44298181 0.9569397 0.29028693 0 0
0.10153951 0.71651465 0.44251445 -0.88192242 -0.47139457 0 0
-0.13230494 0.73415899 0.44265929 -0.95693982 -0.29028636 0 0
0.14542651 0.7420181 0.44230768 0.88192242 0.47139457 0 0
0.13140842 0.75382471 0.4425793 0.29028091 0.95694149 0 0
-0.10144737 0.76749134 0.44277388 0.29028174 0.95694125 0 0
-0.11317446 0.7681607 0.44272023 -0.098017074 0.99518472 0 0
0.13441472 0.45917833 0.44303614 0.99518472 0.098017074 0 0
-0.00072977255 0.50290352 0.44321543 0.29028174 -0.95694125 0 0
0.012078668 0.51245999 0.44330299 0.773009 -0.634395 0 0
0.014773368 0.51742673 0.4432514 0.9569397 -0.29028693 0 0
0.016591979 0.52746296 0.44354051 0.99518466 0.098017976 0 0
0.01617351 0.5317117 0.4433811 0.99518466 0.098017976 0 0
-0.12643573 0.58505857 0.44379759 -0.99518478 -0.098016493 0 0
-0.1162779 0.60550958 0.44379401 -0.63439268 0.77301097 0 0
0.0080685942 0.66185158 0.44312733 0.29028174 0.95694125 0 0
0.0061386107 0.66230261 0.44399416 0.098017074 0.99518472 0 0
0.11398946 0.70609897 0.44383058 -0.29028174 -0.95694125 0 0
0.11075944 0.70769799 0.44396138 -0.47140169 -0.88191867 0 0
0.10751155 0.70986903 0.44341353 -0.63439268 -0.77301097 0 0
0.098743789 0.72302973 0.44371885 -0.95694065 -0.29028359 0 0
-0.12933034 0.72850657 0.44321916 -0.77300978 -0.63439417 0 0
-0.087971881 0.72819239 0.44349256 0.773009 -0.634395 0 0
-0.083214164 0.74494243 0.44337127 0.99518472 0.098017663 0 0
0.11492595 0.47983474 0.44424111 0.29028717 0.95693958 0 0
0.10567883 0.48015106 0.44428864 -0.098017074 0.99518472 0 0
-0.032056186 0.53732437 0.44417238 -0.88192242 0.47139457 0 0
-0.081197053 0.56937337 0.44439179 0.77300835 -0.63439596 0 0
0.016569477 0.6165325 0.44405591 0.63439268 -0.77301097 0 0
0.02725091 0.63665289 0.44474691 0.99518478 -0.098016493 0 0
-0.0206086 0.64908081 0.44431764 -0.88192242 0.47139457 0 0
0.015692804 0.6585871 0.44438735 0.47140169 0.88191867 0 0
0.11318103 0.70640355 0.44490328 -0.47140169 -0.88191867 0 0
0.099634543 0.73953182 0.44435713 -0.95694065 0.29028359 0 0
-0.13383342 0.74491012 0.44444883 -0.99518472 0.098017663 0 0
0.122485 0.43329316 0.44584221 0.47139239 -0.88192356 0 0
0.0023717147 0.50418228 0.44594437 0.47140169 -0.88191867 0 0
-0.03397328 0.52332717 0.44542742 -0.99518478 -0.098016493 0 0
-0.019442867 0.62322116 0.4454186 -0.88192242 -0.47139457 0 0
0.097994529 0.72687095 0.44567719 -0.99518472 -0.098017663 0 0
0.10616672 0.7486524 0.44508451 -0.63439268 0.77301097 0 0
0.11229981 0.75275052 0.44549695 -0.47140169 0.88191867 0 0
-0.032728799 0.5183115 0.44627047 -0.9569397 -0.29028693 0 0
0.01631234 0.52359205 0.44611609 0.99518466 -0.098017976 0 0
-0.032427065 0.53657734 0.44678155 -0.9569397 0.29028693 0 0
-0.10586736 0.56025767 0.44614023 -0.098017074 -0.99518472 0 0
-0.084529132 0.60458076 0.44652352 0.63439268 0.77301097 0 0
-0.090391368 0.60836691 0.44670686 0.47140169 0.88191867 0 0
0.022860555 0.62289542 0.44611645 0.77300835 -0.63439596 0 0
0.017804747 0.65693659 0.44677979 0.63439268 0.77301097 0 0
-0.13009657 0.72969031 0.44642994 -0.88192242 -0.47139457 0 0
0.099192202 0.73807359 0.4468286 -0.95694065 0.29028359 0 0
-0.12673749 0.76091802 0.4463577 -0.77300978 0.63439417 0 0
0.13148832 0.44266135 0.44706038 0.88192111 -0.47139704 0 0
0.12508783 0.47491056 0.44767106 0.63439548 0.77300864 0 0
-0.0014415818 0.55120659 0.44775006 0.29028174 0.95694125 0 0
-0.11126693 0.56200618 0.44720724 -0.47140169 -0.88191867 0 0
-0.084735461 0.56577301 0.44712281 0.63439268 -0.77301097 0 0
-0.12636569 0.58434767 0.44795653 -0.99518478 -0.098016493 0 0
-0.12643978 0.58542311 0.44727209 -0.99518478 0.098016493 0 0
0.025739532 0.64577258 0.44766599 0.9569397 0.29028693 0 0
0.13707796 0.70847583 0.4470768 0.47140169 -0.88191867 0 0
-0.12651438 0.72508699 0.44779703 -0.6343919 -0.77301157 0 0
-0.093527116 0.76363778 0.44779143 0.6343919 0.77301157 0 0
0.088758297 0.4401201 0.44834846 -0.77301073 -0.63439298 0 0
0.1332379 0.4464395 0.44855106 0.95693934 -0.290288 0 0
-0.01053388 0.50162733 0.44833207 -0.098017074 -0.99518472 0 0
0.0041007148 0.50510645 0.44839036 0.47140169 -0.88191867 0 0
-0.034244124 0.52781701 0.44806278 -0.99518478 0.098016493 0 0
0.016286898 0.53056043 0.44891906 0.99518466 0.098017976 0 0
-0.10638425 0.56039923 0.44806936 -0.29028174 -0.95694125 0 0
-0.12146513 0.5702548 0.44832322 -0.77300835 -0.63439596 0 0
-0.076098129 0.5798763 0.4489764 0.9569397 -0.29028693 0 0
-0.075807497 0.58196819 0.44898093 0.99518478 -0.098016493 0 0
-0.075776629 0.58824146 0.44896764 0.99518478 0.098016493 0 0
-0.12184758 0.59980226 0.44855067 -0.77300835 0.63439596 0 0
-0.10558061 0.61029363 0.44825044 -0.098017074 0.99518472 0 0
0.0038497546 0.6625281 0.44819161 0.098017074 0.99518472 0 0
0.1473096 0.73767924 0.4482488 0.95693982 0.29028636 0 0
-0.12018989 0.76565552 0.44883066 -0.47140169 0.88191867 0 0
-0.10417489 0.76819074 0.44838676 0.098017074 0.99518472 0 0
0.12230782 0.43319845 0.44976941 0.47139239 -0.88192356 0 0
-0.11826485 0.60387892 0.44915271 -0.63439268 0.77301097 0 0
0.023723409 0.62440979 0.44979015 0.88192242 -0.47139457 0 0
-0.023206312 0.6418854 0.44905025 -0.99518478 0.098016493 0 0
-0.016205426 0.65525502 0.44954467 -0.77300835 0.63439596 0 0
0.015034346 0.65893906 0.44956148 0.47140169 0.88191867 0 0
0.13944307 0.71033883 0.44970107 0.63439417 -0.77300978 0 0
0.10101862 0.74213588 0.44951299 -0.88192242 0.47139457 0 0
-0.097194746 0.76583743 0.44909158 0.47140169 0.88191867 0 0
0.12847117 0.47169146 0.45084035 0.77301216 0.63439119 0 0
0.093002558 0.4744308 0.45063627 -0.6343962 0.77300805 0 0
-0.0033777894 0.50210023 0.45065996 0.29028174 -0.95694125 0 0
-0.025429741 0.50774765 0.45061362 -0.6343919 -0.77301157 0 0
-0.032097306 0.53724742 0.45068628 -0.88192242 0.47139457 0 0
0.001736847 0.55005121 0.45091996 0.47140169 0.88191867 0 0
-0.099790618 0.55989134 0.45095307 0.098017074 -0.99518472 0 0
-0.015307892 0.61848867 0.45055902 -0.63439268 -0.77301097 0 0
0.026346367 0.63071066 0.45018291 0.9569397 -0.29028693 0 0
-0.017790187 0.65332401 0.4508346 -0.77300835 0.63439596 0 0
0.099965304 0.71945983 0.45004842 -0.88192242 -0.47139457 0 0
0.099324107 0.72111666 0.45063001 -0.95694065 -0.29028359 0 0
-0.12274584 0.76427096 0.45070231 -0.6343919 0.77301157 0 0
-0.11706941 0.76704472 0.45052263 -0.29028174 0.95694125 0 0
0.00072957447 0.5033462 0.45138824 0.29028174 -0.95694125 0 0
-0.0034300489 0.55180973 0.45132026 0.29028174 0.95694125 0 0
0.0054472149 0.6121121 0.45174816 0.098017074 -0.99518472 0 0
0.026232641 0.63033581 0.45111167 0.9569397 -0.29028693 0 0
0.11221108 0.70692211 0.45153692 -0.47140169 -0.88191867 0 0
-0.083469175 0.74753159 0.451204 0.99518472 0.098017663 0 0
-0.10232233 0.76775676 0.45114991 0.29028174 0.95694125 0 0
0.088077776 0.44099408 0.45225379 -0.88192111 -0.47139704 0 0
-0.033117715 0.5195936 0.45275402 -0.9569397 -0.29028693 0 0
-0.094653502 0.56067258 0.45263368 0.29028174 -0.95694125 0 0
-0.12640694 0.58476633 0.45294875 -0.99518478 -0.098016493 0 0
-0.12392552 0.59611881 0.45244503 -0.88192242 0.47139457 0 0
0.026366426 0.64370602 0.45249239 0.9569397 0.29028693 0 0
0.14029914 0.71104133 0.45223412 0.63439417 -0.77300978 0 0
0.10382346 0.71343136 0.45293385 -0.77300835 -0.63439596 0 0
-0.11510365 0.71862417 0.45264757 -0.29028174 -0.95694125 0 0
0.09770672 0.72979319 0.45254242 -0.99518472 -0.098017663 0 0
-0.11142516 0.76833296 0.45213795 -0.098017074 0.99518472 0 0
0.13113824 0.46804386 0.45307171 0.88192111 0.47139704 0 0
